# .PCD v0.7 - Point Cloud Data file format
VERSION 0.7
FIELDS x y z
SIZE 4 4 4
TYPE F F F
COUNT 1 1 1
WIDTH 1309
HEIGHT 1
VIEWPOINT 0 0 0 1 0 0 0
POINTS 1309
DATA ascii
0.013315734 0.030076087 -0.14416501
0.01364648 0.031529486 -0.14656883
0.013361219 0.029604256 -0.14610806
0.013691965 0.031057715 -0.14851186
0.013737451 0.030585945 -0.15045489
0.014068197 0.032039285 -0.15285867
0.013782937 0.030114174 -0.15239792
0.014113683 0.031567514 -0.15480171
0.013828423 0.029642344 -0.15434095
0.014159169 0.031095743 -0.15674475
0.013873909 0.029170573 -0.15628399
0.0041751154 -0.03628552 -0.14061785
0.014204655 0.030623972 -0.15868777
0.013919402 0.028698802 -0.15822701
0.0042206012 -0.03675729 -0.14256087
0.014250141 0.030152202 -0.16063078
0.013964888 0.028227031 -0.16017002
0.0039808266 -0.039154291 -0.1440431
0.014295626 0.029680431 -0.1625738
0.014010374 0.02775526 -0.16211304
0.0043115802 -0.037700891 -0.1464469
0.014341112 0.02920866 -0.16451684
0.014386598 0.02873683 -0.16645987
0.014432084 0.028265059 -0.1684029
0.01447757 0.027793288 -0.17034593
0.014192317 0.025868118 -0.16988517
0.014237802 0.025396347 -0.1718282
0.0042537414 -0.041984975 -0.15570128
0.0033979751 -0.047760487 -0.15431897
0.014283288 0.024924576 -0.1737712
0.0034434609 -0.048232257 -0.15626198
0.014328774 0.024452806 -0.17571424
0.0038196929 -0.047250628 -0.16060881
0.004435692 -0.043872118 -0.16347338
0.0041504316 -0.045797229 -0.16301262
0.004811924 -0.042890429 -0.16782019
0.0051426701 -0.041437089 -0.17022401
0.0051881559 -0.04190886 -0.172167
0.0052336417 -0.042380631 -0.17411007
0.0052791275 -0.042852402 -0.17605306
0.015203796 0.030753016 -0.14016792
0.014918536 0.028827846 -0.13970715
0.015249282 0.030281246 -0.14211094
0.014964022 0.028356075 -0.14165017
0.015294768 0.029809475 -0.14405394
0.015009508 0.027884305 -0.14359318
0.015340254 0.029337645 -0.14599699
0.015671 0.030791104 -0.14840078
0.01538574 0.028865874 -0.14794001
0.015716486 0.030319333 -0.15034382
0.015761971 0.029847562 -0.15228684
0.015807457 0.029375732 -0.15422988
0.015852943 0.028903961 -0.15617292
0.0064394102 -0.03462702 -0.14096753
0.015898436 0.02843219 -0.15811594
0.0064848959 -0.035098791 -0.14291056
0.015943922 0.02796042 -0.16005895
0.0062451214 -0.037495673 -0.1443928
0.016274661 0.029413819 -0.16246273
0.015989408 0.027488649 -0.16200197
0.0065758675 -0.036042333 -0.14679658
0.016320147 0.028942049 -0.16440576
0.016034894 0.027016878 -0.163945
0.016365632 0.028470218 -0.1663488
0.016080379 0.026545107 -0.16588804
0.016411118 0.027998447 -0.16829182
0.016125865 0.026073277 -0.16783106
0.016171351 0.025601506 -0.1697741
0.0053315163 -0.047555327 -0.15226488
0.016216837 0.025129735 -0.17171712
0.016262323 0.024657965 -0.17366013
0.016307808 0.024186194 -0.17560317
0.006654501 -0.041741729 -0.16188005
0.0057987273 -0.04751724 -0.16049774
0.0066999868 -0.0422135 -0.16382308
0.0064147264 -0.04413873 -0.16336231
0.006129466 -0.04606384 -0.16290155
0.0067454726 -0.04268527 -0.16576611
0.0071217045 -0.041703701 -0.17011294
0.0071671903 -0.042175472 -0.17205593
0.0074979365 -0.040722013 -0.17445979
0.016897568 0.028561175 -0.13959607
0.016943054 0.028089404 -0.1415391
0.016657794 0.026164174 -0.14107832
0.0172738 0.029542804 -0.14394286
0.01698854 0.027617633 -0.1434821
0.017319286 0.029070973 -0.1458859
0.017034026 0.027145863 -0.14542514
0.017364772 0.028599203 -0.14782892
0.017410258 0.028127432 -0.14977196
0.017741004 0.029580891 -0.15217577
0.017455744 0.027655661 -0.15171498
0.01778649 0.029109061 -0.15411881
0.017501229 0.02718389 -0.15365803
0.017831976 0.02863729 -0.15606184
0.017546715 0.02671212 -0.15560105
0.0084184427 -0.034893692 -0.14085646
0.017877469 0.028165519 -0.15800487
0.0084639285 -0.035365462 -0.14279948
0.017922955 0.027693748 -0.15994787
0.017637687 0.025768518 -0.1594871
0.0085094143 -0.035837233 -0.14474249
0.01796844 0.027221978 -0.16189089
0.018013926 0.026750207 -0.16383393
0.018059412 0.026278436 -0.16577697
0.007790098 -0.043028057 -0.14918928
0.018104898 0.025806606 -0.16771999
0.0075503308 -0.045424998 -0.15067154
0.018150384 0.025334835 -0.16966303
0.018195869 0.024863064 -0.17160605
0.018241355 0.024391294 -0.17354906
0.017956095 0.022466063 -0.17308828
0.018001581 0.021994293 -0.1750313
0.0085880477 -0.041536629 -0.15982595
0.0086335335 -0.0420084 -0.16176897
0.0077777598 -0.047783911 -0.16038667
0.0083937589 -0.044405401 -0.16325124
0.0090552438 -0.041498542 -0.1680588
0.0094314832 -0.040516913 -0.17240563
0.009476969 -0.040988684 -0.17434871
0.018922087 0.027822733 -0.14142802
0.018636826 0.025897503 -0.14096725
0.018967573 0.027350962 -0.14337103
0.018682312 0.025425732 -0.14291026
0.019013058 0.026879191 -0.14531407
0.019343805 0.028332531 -0.14771785
0.019058544 0.026407421 -0.14725709
0.01938929 0.027860761 -0.14966089
0.019434776 0.02738899 -0.15160391
0.019480262 0.026917219 -0.15354694
0.019811008 0.028370619 -0.15595075
0.019525748 0.026445448 -0.15548998
0.010682737 -0.033235133 -0.14120616
0.019856501 0.027898848 -0.15789378
0.019571234 0.025973618 -0.157433
0.010442963 -0.035632133 -0.14268841
0.019901987 0.027427077 -0.1598368
0.019616719 0.025501847 -0.15937601
0.010203188 -0.038029015 -0.14417066
0.019947473 0.026955307 -0.16177982
0.019662205 0.025030077 -0.16131903
0.0096781608 -0.042351186 -0.14519213
0.019992959 0.026483536 -0.16372284
0.019707691 0.024558306 -0.16326207
0.0094383936 -0.044748127 -0.14667441
0.0091531258 -0.046673357 -0.14621364
0.020038445 0.026011765 -0.16566589
0.019753177 0.024086535 -0.16520511
0.02008393 0.025539935 -0.16760892
0.019798663 0.023614764 -0.16714813
0.020129416 0.025068164 -0.16955194
0.019844148 0.023142993 -0.16909117
0.020174902 0.024596393 -0.17149496
0.019889642 0.022671163 -0.17103419
0.019935127 0.022199392 -0.17297719
0.019980613 0.021727622 -0.17492023
0.0097567942 -0.048050582 -0.16027559
0.010658054 -0.042746842 -0.16360094
0.010372793 -0.044672072 -0.16314015
0.010988792 -0.041293442 -0.16600472
0.011365032 -0.040311813 -0.17035156
0.011410518 -0.040783584 -0.17229456
0.011741256 -0.039330244 -0.17469838
0.020615831 0.025630891 -0.14085618
0.020330578 0.023705721 -0.14039542
0.020661317 0.025159121 -0.14279918
0.020376064 0.02323395 -0.14233842
0.020992063 0.02661258 -0.14520299
0.020706803 0.02468735 -0.14474222
0.021037549 0.026140809 -0.14714602
0.021368295 0.027594149 -0.14954981
0.021083042 0.025668979 -0.14908905
0.021413781 0.027122378 -0.15149283
0.021459267 0.026650608 -0.15343587
0.021504752 0.026178837 -0.15537891
0.01266174 -0.033501744 -0.14109509
0.021550238 0.025707006 -0.15732193
0.012136705 -0.037823856 -0.14211658
0.021595724 0.025235236 -0.15926494
0.02164121 0.024763465 -0.16120796
0.011371911 -0.044542968 -0.1446203
0.021686696 0.024291694 -0.163151
0.011132129 -0.046939969 -0.14610256
0.021732181 0.023819923 -0.16509403
0.021777667 0.023348153 -0.16703705
0.021823153 0.022876382 -0.16898009
0.011268586 -0.048355281 -0.15193166
0.021868646 0.022404552 -0.17092311
0.021914132 0.021932781 -0.17286612
0.021628872 0.02000767 -0.17240536
0.021959618 0.02146101 -0.17480916
0.021674357 0.01953584 -0.1743484
0.021719843 0.019064069 -0.17629142
0.011735797 -0.048317194 -0.16016452
0.012637056 -0.043013453 -0.16348986
0.012351796 -0.044938684 -0.16302907
0.013298549 -0.040106654 -0.16829742
0.013629287 -0.038653255 -0.17070127
0.013674773 -0.039125025 -0.17264426
0.014005527 -0.037671626 -0.1750481
0.022309612 0.02343905 -0.14028433
0.022024352 0.021513939 -0.13982357
0.022355098 0.022967279 -0.14222735
0.022069838 0.021042168 -0.14176658
0.022685837 0.024420679 -0.14463115
0.022400584 0.022495508 -0.14417037
0.023016583 0.025874138 -0.14703494
0.022731323 0.023948908 -0.14657417
0.023062076 0.025402308 -0.14897798
0.023107562 0.024930537 -0.150921
0.023438301 0.026383936 -0.1533248
0.023153048 0.024458766 -0.15286404
0.01488054 -0.031371474 -0.13950175
0.023483787 0.025912166 -0.15526783
0.023198534 0.023986995 -0.15480708
0.014355512 -0.035693645 -0.14052324
0.023529273 0.025440335 -0.15721086
0.02324402 0.023515224 -0.1567501
0.013830477 -0.040015757 -0.14154473
0.023574758 0.024968565 -0.15915386
0.023289505 0.023043454 -0.1586931
0.023620244 0.024496794 -0.16109689
0.023334991 0.022571623 -0.16063613
0.02366573 0.024025023 -0.16303992
0.023380477 0.022099853 -0.16257916
0.013111161 -0.04720664 -0.14599149
0.023711216 0.023553252 -0.16498296
0.013156647 -0.047678411 -0.14793453
0.023756701 0.023081481 -0.16692598
0.023471449 0.021156311 -0.16646522
0.013202133 -0.048150182 -0.14987755
0.023802187 0.022609711 -0.16886902
0.023516934 0.02068454 -0.16840826
0.023847681 0.02213788 -0.17081204
0.02356242 0.02021277 -0.17035128
0.023893166 0.02166611 -0.17275505
0.023607906 0.019740999 -0.17229429
0.013623858 -0.047640324 -0.15616739
0.023653392 0.019269168 -0.17423733
0.013669344 -0.048112094 -0.15811042
0.023698878 0.018797398 -0.17618035
0.023413617 0.016872227 -0.17571957
0.014901342 -0.041354954 -0.16383955
0.014616089 -0.043280125 -0.16337879
0.014330829 -0.045205355 -0.162918
0.015232095 -0.039901555 -0.16624334
0.015562834 -0.038448155 -0.16864711
0.015893588 -0.036994755 -0.17105097
0.01560832 -0.038919926 -0.17059019
0.015939074 -0.037466526 -0.17299396
0.015984559 -0.037938297 -0.17493702
0.024003385 0.021247268 -0.1397125
0.024334131 0.022700608 -0.14211626
0.02404887 0.020775497 -0.1416555
0.02376361 0.018850267 -0.14119473
0.024379617 0.022228837 -0.1440593
0.024094356 0.020303726 -0.14359854
0.024710355 0.023682237 -0.1464631
0.025041109 0.025135636 -0.14886691
0.024755841 0.023210466 -0.14840613
0.025086595 0.024663866 -0.15080993
0.024801327 0.022738695 -0.15034916
0.025132081 0.024192095 -0.15275297
0.025177566 0.023720324 -0.154696
0.016049286 -0.037885427 -0.13995141
0.025223052 0.023248553 -0.15663902
0.015809512 -0.040282428 -0.14143366
0.025268538 0.022776783 -0.15858203
0.015284492 -0.04460454 -0.14245513
0.025314024 0.022304952 -0.16052505
0.015329977 -0.045076311 -0.14439815
0.02535951 0.021833181 -0.16246809
0.015375463 -0.045548081 -0.14634119
0.025404995 0.021361411 -0.16441113
0.015420949 -0.046019852 -0.14828423
0.025735734 0.02281481 -0.16681491
0.025450481 0.02088964 -0.16635415
0.015466435 -0.046491623 -0.15022725
0.025495967 0.020417869 -0.16829719
0.015511921 -0.046963394 -0.15217029
0.025541453 0.019946098 -0.17024021
0.025256192 0.018020868 -0.16977943
0.015557406 -0.047435224 -0.15411331
0.025586938 0.019474328 -0.17218322
0.025301678 0.017549098 -0.17172244
0.025632424 0.019002497 -0.17412625
0.025347164 0.017077327 -0.17366548
0.015933631 -0.046453595 -0.15846011
0.02539265 0.016605556 -0.1756085
0.016880376 -0.041621625 -0.16372848
0.016595123 -0.043546796 -0.16326772
0.017496383 -0.038243055 -0.16659304
0.01721113 -0.040168226 -0.16613227
0.017541869 -0.038714826 -0.16853604
0.017872622 -0.037261426 -0.17093989
0.018203361 -0.035808027 -0.17334364
0.018248847 -0.036279798 -0.17528671
0.026027903 0.020508885 -0.14154443
0.025742643 0.018583655 -0.14108366
0.02545739 0.016658485 -0.1406229
0.025172122 0.014733315 -0.14016211
0.026073389 0.020037115 -0.14348747
0.025788128 0.018111885 -0.14302669
0.026404135 0.021490455 -0.14589125
0.026734874 0.022943854 -0.14829506
0.026780359 0.022472084 -0.15023808
0.027111113 0.023925483 -0.15264189
0.026825845 0.022000253 -0.15218112
0.027156599 0.023453712 -0.15458493
0.026871331 0.021528482 -0.15412414
0.018028319 -0.038152039 -0.13984033
0.027202085 0.022981942 -0.15652795
0.026916817 0.021056712 -0.15606716
0.017503291 -0.04247421 -0.14086181
0.02724757 0.022510171 -0.15847096
0.026962303 0.020584941 -0.15801018
0.027293056 0.022038341 -0.16041398
0.027007788 0.02011317 -0.15995321
0.027338542 0.02156657 -0.16235702
0.027053282 0.019641399 -0.16189623
0.017354496 -0.045814693 -0.14623012
0.027384028 0.021094799 -0.16430005
0.027098767 0.019169569 -0.16383928
0.017399982 -0.046286464 -0.14817315
0.027429514 0.020623028 -0.16624308
0.027144253 0.018697798 -0.1657823
0.01773072 -0.044833124 -0.15057693
0.027474999 0.020151258 -0.16818611
0.027189739 0.018226027 -0.16772532
0.017776206 -0.045304894 -0.15251997
0.027520485 0.019679487 -0.17012914
0.027235225 0.017754257 -0.16966835
0.017821692 -0.045776665 -0.15446299
0.027280711 0.017282486 -0.17161137
0.026995458 0.015357316 -0.17115059
0.017867178 -0.046248436 -0.156406
0.027326196 0.016810715 -0.17355439
0.027040944 0.014885545 -0.17309363
0.027371682 0.016338944 -0.17549741
0.027086429 0.014413774 -0.17503665
0.018859409 -0.041888237 -0.1636174
0.018574156 -0.043813407 -0.16315663
0.019760676 -0.036584437 -0.16694275
0.019475415 -0.038509667 -0.16648196
0.020091422 -0.035131097 -0.16934651
0.019806162 -0.037056208 -0.16888574
0.020136908 -0.035602868 -0.17128958
0.020467654 -0.034149408 -0.17369334
0.020182393 -0.036074638 -0.17323257
0.02051314 -0.034621239 -0.17563641
0.027436424 0.016391814 -0.14051183
0.027151156 0.014466643 -0.14005104
0.026865903 0.012541473 -0.13959028
0.028052423 0.019770443 -0.1433764
0.027767163 0.017845213 -0.14291562
0.02748191 0.015920043 -0.14245486
0.027196642 0.013994813 -0.14199407
0.026911389 0.012069702 -0.14153332
0.026626129 0.010144472 -0.14107254
0.028383169 0.021223783 -0.14578018
0.028097916 0.019298613 -0.14531942
0.028428655 0.020752013 -0.14772321
0.028759394 0.022205412 -0.15012699
0.028474141 0.020280242 -0.14966623
0.02880488 0.021733582 -0.15207005
0.028519627 0.019808471 -0.15160927
0.028850365 0.021261811 -0.15401307
0.028565113 0.019336641 -0.15355231
0.020007353 -0.03841871 -0.13972926
0.028895851 0.02079004 -0.15595609
0.028610598 0.01886487 -0.15549533
0.028941337 0.02031827 -0.15789911
0.028656084 0.018393099 -0.15743834
0.019527812 -0.043212652 -0.14269374
0.028986823 0.019846499 -0.15984213
0.02870157 0.017921329 -0.15938136
0.019573297 -0.043684423 -0.14463677
0.029032316 0.019374728 -0.16178516
0.028747056 0.017449558 -0.1613244
0.019618783 -0.044156194 -0.1465798
0.029077802 0.018902898 -0.16372821
0.028792541 0.016977787 -0.16326743
0.019664269 -0.044627964 -0.14852284
0.029123288 0.018431127 -0.16567123
0.028838027 0.016506016 -0.16521046
0.019709755 -0.045099795 -0.15046586
0.029168773 0.017959356 -0.16761425
0.028883521 0.016034186 -0.16715349
0.029214259 0.017487586 -0.16955727
0.028929006 0.015562415 -0.16909651
0.020085979 -0.044118166 -0.15481268
0.029259745 0.017015815 -0.1715003
0.028974492 0.015090644 -0.17103952
0.020131465 -0.044589937 -0.15675569
0.029019978 0.014618874 -0.17298256
0.028734718 0.012693703 -0.1725218
0.029065464 0.014147103 -0.17492558
0.028780203 0.012221932 -0.17446482
0.020507704 -0.043608308 -0.16110253
0.020838443 -0.042154908 -0.16350633
0.022024971 -0.034925997 -0.16729243
0.02173971 -0.036851108 -0.16683167
0.02145445 -0.038776338 -0.16637088
0.022355717 -0.033472538 -0.16969621
0.022070456 -0.035397768 -0.16923544
0.022401202 -0.033944309 -0.17163928
0.022115942 -0.035869539 -0.1711785
0.022446688 -0.03441608 -0.17358227
0.022777434 -0.032962739 -0.1759861
0.022492174 -0.03488791 -0.17552534
0.029130189 0.014199972 -0.13993996
0.029460942 0.015653372 -0.14234379
0.029175675 0.013728142 -0.141883
0.028890422 0.011803031 -0.14142224
0.028605161 0.0098778009 -0.14096147
0.028319901 0.0079526305 -0.14050071
0.030076949 0.019031942 -0.14520834
0.029791681 0.017106771 -0.14474757
0.030407688 0.020485342 -0.14761214
0.030122435 0.018560171 -0.14715138
0.030453173 0.020013571 -0.14955516
0.030167921 0.0180884 -0.1490944
0.030498659 0.0195418 -0.1514982
0.023081942 -0.030512869 -0.13951822
0.030829398 0.02099514 -0.15390199
0.030544145 0.01906997 -0.15344124
0.021986386 -0.038685381 -0.13961817
0.030589631 0.018598199 -0.15538426
0.021746611 -0.041082382 -0.14110042
0.03092037 0.020051599 -0.15778804
0.030635117 0.018126428 -0.15732726
0.021792097 -0.041554153 -0.14304343
0.030965855 0.019579828 -0.15973106
0.030680602 0.017654657 -0.15927029
0.02155233 -0.043951094 -0.14452569
0.031011349 0.019108057 -0.16167408
0.030726088 0.017182887 -0.16121332
0.031056834 0.018636227 -0.16361713
0.030771574 0.016711116 -0.16315636
0.03081706 0.016239345 -0.16509938
0.030531807 0.014314175 -0.16463862
0.030862553 0.015767515 -0.16704242
0.030577293 0.013842404 -0.16658166
0.022019526 -0.043913066 -0.15275858
0.030908039 0.015295744 -0.16898544
0.030622778 0.013370574 -0.16852468
0.022065012 -0.044384837 -0.15470161
0.030953525 0.014823973 -0.17092845
0.030668264 0.012898803 -0.17046769
0.022110498 -0.044856608 -0.15664461
0.03099901 0.014352202 -0.17287149
0.03071375 0.012427032 -0.17241073
0.030759236 0.011955261 -0.17435375
0.030473975 0.010030031 -0.17389297
0.022486737 -0.043874979 -0.16099146
0.030804729 0.01148349 -0.17629679
0.030519461 0.0095582604 -0.17583601
0.023958517 -0.034720838 -0.16523834
0.023673257 -0.036646008 -0.16477758
0.023387996 -0.038571239 -0.16431679
0.023102744 -0.040496409 -0.16385603
0.022817476 -0.042421579 -0.16339526
0.024289263 -0.033267438 -0.16764213
0.024004003 -0.035192668 -0.16718136
0.024620002 -0.031814039 -0.1700459
0.024334749 -0.033739209 -0.16958514
0.024665495 -0.03228581 -0.17198896
0.024380235 -0.03421098 -0.17152821
0.024710981 -0.03275764 -0.17393196
0.024756467 -0.033229411 -0.17587502
0.031154707 0.013461471 -0.14177193
0.030869454 0.01153636 -0.14131117
0.030584194 0.0096111298 -0.14085039
0.030298933 0.0076859593 -0.14038964
0.030013673 0.0057607889 -0.13992885
0.031770714 0.0168401 -0.1446365
0.031485461 0.01491493 -0.14417574
0.028632872 -0.0043368936 -0.13956803
0.032101467 0.0182935 -0.14704031
0.031816199 0.01636827 -0.14657953
0.027537316 -0.012509406 -0.13966799
0.032146953 0.017821729 -0.14898333
0.032477692 0.019275129 -0.15138713
0.032192439 0.017349958 -0.15092637
0.025346227 -0.02885437 -0.1398679
0.032523178 0.018803298 -0.15333016
0.032237925 0.016878188 -0.1528694
0.024535939 -0.035101712 -0.14042865
0.024250679 -0.037026942 -0.13996787
0.032568663 0.018331528 -0.15527318
0.03228341 0.016406417 -0.15481243
0.024010904 -0.039423823 -0.14145012
0.032614149 0.017859757 -0.15721619
0.032328896 0.015934587 -0.15675543
0.02405639 -0.039895594 -0.14339313
0.02377113 -0.041820824 -0.14293236
0.032659635 0.017387986 -0.15915921
0.032374382 0.015462816 -0.15869845
0.023816615 -0.042292595 -0.14487538
0.032705121 0.016916215 -0.16110225
0.032419868 0.014991045 -0.16064149
0.023862101 -0.042764366 -0.14681841
0.032750607 0.016444445 -0.16304529
0.032465354 0.014519274 -0.16258453
0.023907587 -0.043236196 -0.14876145
0.032796092 0.015972674 -0.16498831
0.032510839 0.014047503 -0.16452755
0.023953073 -0.043707967 -0.15070447
0.032556325 0.013575733 -0.16647059
0.032271065 0.011650503 -0.16600981
0.023998559 -0.044179738 -0.15264751
0.032601811 0.013103902 -0.16841361
0.032316551 0.011178732 -0.16795284
0.032647297 0.012632132 -0.17035662
0.032362036 0.010706961 -0.16989583
0.032692783 0.012160361 -0.17229965
0.032407522 0.01023519 -0.17183888
0.024420284 -0.043669879 -0.15893735
0.032453008 0.00976336 -0.1737819
0.032167755 0.0078382492 -0.17332113
0.024751022 -0.04221648 -0.16134113
0.032498494 0.0092915893 -0.17572492
0.032213241 0.0073664188 -0.17526416
0.026508063 -0.031137168 -0.16604879
0.02622281 -0.033062339 -0.16558802
0.02593755 -0.034987509 -0.16512725
0.025652289 -0.03691268 -0.16466649
0.025367029 -0.03883791 -0.16420572
0.025081776 -0.04076308 -0.16374496
0.026838809 -0.029683769 -0.16845258
0.026553549 -0.031608939 -0.16799182
0.026268296 -0.03353411 -0.16753104
0.026884295 -0.03015554 -0.17039558
0.026599035 -0.03208071 -0.16993482
0.026929781 -0.03062737 -0.17233865
0.026644528 -0.032552481 -0.17187789
0.027260527 -0.029173911 -0.17474242
0.026975267 -0.031099141 -0.17428164
0.032848489 0.011269748 -0.1412001
0.032563228 0.0093445182 -0.14073932
0.032277968 0.0074193478 -0.14027855
0.031992707 0.0054941773 -0.13981777
0.033464495 0.014648318 -0.14406465
0.033179227 0.012723088 -0.14360388
0.030897167 -0.0026783347 -0.13991773
0.033795234 0.016101658 -0.14646846
0.030372132 -0.0070004463 -0.14093924
0.030086879 -0.0089256167 -0.14047848
0.029801618 -0.010850847 -0.14001769
0.02951635 -0.012776017 -0.13955691
0.034125987 0.017555118 -0.14887226
0.03384072 0.015629888 -0.14841148
0.029561836 -0.013247788 -0.14149994
0.029276583 -0.015172958 -0.14103918
0.02899133 -0.017098129 -0.14057842
0.028706063 -0.019023359 -0.14011765
0.02842081 -0.02094847 -0.13965687
0.034171473 0.017083347 -0.15081529
0.033886205 0.015158117 -0.1503545
0.027895782 -0.025270641 -0.14067838
0.027610522 -0.027195811 -0.14021762
0.027325261 -0.029120982 -0.13975683
0.034216959 0.016611576 -0.15275833
0.033931691 0.014686346 -0.15229756
0.027656008 -0.027667582 -0.14216065
0.027370747 -0.029592812 -0.14169987
0.027085494 -0.031517923 -0.14123911
0.026800226 -0.033443153 -0.14077833
0.026514973 -0.035368323 -0.14031757
0.034262445 0.016139805 -0.15470135
0.033977184 0.014214575 -0.15424058
0.027416233 -0.030064583 -0.14364289
0.02713098 -0.031989753 -0.14318213
0.026845712 -0.033914924 -0.14272135
0.026560459 -0.035840094 -0.1422606
0.026275199 -0.037765324 -0.14179981
0.034307931 0.015667975 -0.15664436
0.03402267 0.013742805 -0.15618357
0.027176466 -0.032461524 -0.14512514
0.026320685 -0.038237095 -0.14374283
0.026035424 -0.040162206 -0.14328206
0.034353416 0.015196204 -0.15858738
0.034068156 0.013271034 -0.15812659
0.02636617 -0.038708866 -0.14568585
0.026080918 -0.040634036 -0.14522508
0.034398902 0.014724433 -0.16053042
0.034113642 0.012799203 -0.16006964
0.026126403 -0.041105807 -0.14716811
0.034444388 0.014252663 -0.16247346
0.034159128 0.012327433 -0.16201267
0.026171889 -0.041577578 -0.14911115
0.034489874 0.013780892 -0.16441648
0.034204613 0.011855662 -0.16395569
0.026217375 -0.042049348 -0.15105417
0.03453536 0.013309121 -0.16635951
0.034250099 0.011383891 -0.16589874
0.026262861 -0.042521119 -0.15299721
0.034295585 0.01091212 -0.16784176
0.034010332 0.0089869499 -0.16738099
0.026308347 -0.04299289 -0.15494023
0.034341071 0.01044035 -0.16978475
0.034055818 0.0085151792 -0.169324
0.026353832 -0.04346472 -0.15688324
0.034386557 0.0099685788 -0.17172781
0.034101304 0.0080434084 -0.17126703
0.033816036 0.0061181784 -0.17080626
0.026684571 -0.042011321 -0.15928704
0.034146789 0.0075716376 -0.17321005
0.033861522 0.0056464076 -0.17274928
0.028726872 -0.029006839 -0.16445544
0.028441612 -0.030932009 -0.16399468
0.028156359 -0.03285718 -0.16353393
0.027871098 -0.03478235 -0.16307315
0.027585838 -0.03670752 -0.16261238
0.027300578 -0.038632751 -0.1621516
0.027015325 -0.040557861 -0.16169085
0.034192275 0.0070998073 -0.17515309
0.033907007 0.0051746368 -0.17469232
0.033621754 0.0032494664 -0.17423156
0.029057618 -0.027553439 -0.16685925
0.028772358 -0.02947861 -0.16639848
0.028487097 -0.03140378 -0.16593772
0.03366724 0.0027776957 -0.17617458
0.029103104 -0.02802521 -0.16880228
0.028817844 -0.02995038 -0.1683415
0.029433843 -0.02657181 -0.17120606
0.02914859 -0.028496981 -0.17074528
0.028863329 -0.030422151 -0.17028451
0.029479336 -0.027043581 -0.17314911
0.029194076 -0.028968751 -0.17268835
0.029810082 -0.025590181 -0.17555289
0.029524822 -0.027515352 -0.1750921
0.034542233 0.009077847 -0.14062825
0.034256972 0.0071526766 -0.14016747
0.033971712 0.0052275062 -0.1397067
0.035158232 0.012456417 -0.1434928
0.033161424 -0.0010198355 -0.14026743
0.032876171 -0.0029450059 -0.13980666
0.035488985 0.013909876 -0.14589661
0.032921657 -0.0034167767 -0.14174969
0.032636397 -0.0053419471 -0.14128892
0.032351136 -0.0072671175 -0.14082816
0.032065883 -0.0091922879 -0.1403674
0.035819724 0.015363216 -0.14830041
0.035534471 0.013438106 -0.14783964
0.032111369 -0.0096640587 -0.14231043
0.031826109 -0.011589289 -0.14184964
0.031540841 -0.013514459 -0.14138886
0.031255588 -0.01543963 -0.1409281
0.030970333 -0.0173648 -0.14046735
0.030685065 -0.01929003 -0.14000657
0.030399812 -0.021215141 -0.1395458
0.03586521 0.014891446 -0.15024343
0.030730551 -0.019761801 -0.14194959
0.030445298 -0.021686971 -0.14148884
0.030160038 -0.023612142 -0.14102806
0.029874785 -0.025537312 -0.1405673
0.035910696 0.014419675 -0.15218648
0.030205524 -0.024083912 -0.1429711
0.029920271 -0.026009083 -0.14251034
0.02963501 -0.027934253 -0.14204958
0.035956189 0.013947904 -0.15412951
0.029965756 -0.026480854 -0.14445336
0.029680496 -0.028406024 -0.1439926
0.029395236 -0.030331254 -0.14353181
0.029109983 -0.032256424 -0.14307106
0.028824715 -0.034181595 -0.14261028
0.036001675 0.013476133 -0.1560725
0.030011242 -0.026952624 -0.14639637
0.029725982 -0.028877795 -0.14593561
0.029440721 -0.030803025 -0.14547482
0.029155469 -0.032728195 -0.14501406
0.028870201 -0.034653366 -0.14455329
0.028584948 -0.036578536 -0.14409253
0.036047161 0.013004363 -0.15801552
0.030056728 -0.027424455 -0.14833939
0.029771475 -0.029349566 -0.14787862
0.029486207 -0.031274796 -0.14741784
0.029200954 -0.033199966 -0.14695708
0.028915687 -0.035125136 -0.14649631
0.028630434 -0.037050307 -0.14603555
0.028345173 -0.038975537 -0.14557478
0.036092646 0.012532532 -0.15995857
0.030102214 -0.027896225 -0.15028243
0.029816961 -0.029821336 -0.14982167
0.029531693 -0.031746566 -0.1493609
0.02924644 -0.033671737 -0.14890012
0.028961172 -0.035596967 -0.14843935
0.028675919 -0.037522078 -0.14797859
0.028390659 -0.039447308 -0.1475178
0.036138132 0.012060761 -0.16190159
0.029862447 -0.030293167 -0.15176469
0.029577179 -0.032218337 -0.15130392
0.029291926 -0.034143507 -0.15084316
0.029006666 -0.036068738 -0.15038238
0.028721405 -0.037993908 -0.14992163
0.028436145 -0.039919078 -0.14946085
0.036183618 0.011588991 -0.16384462
0.035898358 0.0096638203 -0.16338386
0.029907933 -0.030764937 -0.15370771
0.029622665 -0.032690167 -0.15324694
0.029337412 -0.034615278 -0.15278618
0.029052151 -0.036540508 -0.15232541
0.028766891 -0.038465679 -0.15186465
0.028481631 -0.040390849 -0.15140387
0.036229104 0.01111722 -0.16578767
0.035943851 0.0091920495 -0.16532689
0.028812377 -0.038937449 -0.15380768
0.028527116 -0.040862679 -0.1533469
0.035989337 0.0087202787 -0.16726992
0.035704069 0.0067950487 -0.16680914
0.028572602 -0.04133445 -0.15528992
0.036034822 0.008248508 -0.16921292
0.035749555 0.006323278 -0.16875215
0.03004439 -0.03218025 -0.15953678
0.029759122 -0.03410548 -0.15907601
0.029473869 -0.03603065 -0.15861525
0.029188609 -0.037955821 -0.15815447
0.028903356 -0.039880991 -0.15769371
0.028618088 -0.041806221 -0.15723294
0.036080308 0.0077767372 -0.17115596
0.03579504 0.0058515072 -0.17069519
0.035509787 0.0039263368 -0.17023443
0.030660382 -0.028801739 -0.16240135
0.030375129 -0.03072691 -0.16194059
0.030089876 -0.03265202 -0.16147983
0.029804615 -0.03457725 -0.16101906
0.029519355 -0.036502421 -0.16055828
0.029234095 -0.038427651 -0.16009751
0.028948842 -0.040352762 -0.15963675
0.035840526 0.0053797364 -0.17263821
0.035555273 0.003454566 -0.17217745
0.035270013 0.0015293956 -0.17171668
0.030991135 -0.02734828 -0.16480514
0.030705875 -0.02927351 -0.16434437
0.030420614 -0.03119868 -0.16388361
0.029564841 -0.036974192 -0.16250131
0.02927958 -0.038899422 -0.16204053
0.035886012 0.0049079657 -0.17458124
0.035600759 0.0029827952 -0.17412049
0.035315499 0.0010575652 -0.17365971
0.031321876 -0.02589494 -0.16720894
0.031036621 -0.02782011 -0.16674818
0.035646245 0.0025110245 -0.17606351
0.035360985 0.00058579445 -0.17560273
0.031652629 -0.024441481 -0.16961275
0.031367362 -0.026366711 -0.16915196
0.031698115 -0.024913251 -0.17155576
0.031412847 -0.026838481 -0.17109498
0.032028854 -0.023459911 -0.17395958
0.031743601 -0.025385082 -0.17349882
0.03207434 -0.023931682 -0.17590258
0.031789087 -0.025856853 -0.17544182
0.036236003 0.0068860054 -0.1400564
0.035950743 0.004960835 -0.13959563
0.03685201 0.010264575 -0.14292097
0.036566749 0.0083394051 -0.1424602
0.035710976 0.0025638938 -0.14107789
0.035425723 0.00063872337 -0.14061713
0.037468016 0.013643205 -0.14578554
0.037182756 0.011717975 -0.14532477
0.035185941 -0.0017582774 -0.14209938
0.034900688 -0.0036834478 -0.14163862
0.037513502 0.013171434 -0.14772856
0.034660913 -0.0060804486 -0.14312087
0.034375653 -0.0080055594 -0.14266011
0.0340904 -0.0099307299 -0.14219934
0.033805139 -0.01185596 -0.14173856
0.033519872 -0.01378113 -0.14127779
0.037844241 0.014624774 -0.15013236
0.037558988 0.012699604 -0.1496716
0.034135886 -0.010402501 -0.14414239
0.033850625 -0.012327731 -0.1436816
0.033565357 -0.014252961 -0.14322083
0.033280104 -0.016178071 -0.14276007
0.032994851 -0.018103242 -0.14229931
0.032709584 -0.020028472 -0.14183852
0.032424331 -0.021953642 -0.14137776
0.037889726 0.014153004 -0.15207541
0.037604474 0.012227833 -0.15161464
0.03332559 -0.016649902 -0.14470311
0.033040337 -0.018575013 -0.14424235
0.032755077 -0.020500243 -0.14378156
0.032469817 -0.022425413 -0.1433208
0.032184556 -0.024350584 -0.14286003
0.03793522 0.013681233 -0.15401843
0.037649959 0.011756063 -0.15355766
0.032515302 -0.022897184 -0.14526382
0.032230042 -0.024822414 -0.14480305
0.037980705 0.013209462 -0.15596142
0.037695445 0.011284292 -0.15550067
0.032560788 -0.023368955 -0.14720683
0.032275528 -0.025294185 -0.14674605
0.031990275 -0.027219296 -0.1462853
0.038026191 0.012737691 -0.15790445
0.032606274 -0.023840725 -0.14914985
0.032321014 -0.025765955 -0.14868908
0.032035761 -0.027691126 -0.14822832
0.038071677 0.012265861 -0.1598475
0.037786417 0.01034075 -0.15938672
0.032366499 -0.026237726 -0.15063211
0.032081246 -0.028162897 -0.15017135
0.031795993 -0.030088007 -0.14971058
0.031510726 -0.032013237 -0.14924981
0.031225473 -0.033938408 -0.14878905
0.030940205 -0.035863638 -0.14832827
0.038117163 0.01179409 -0.16179052
0.037831903 0.0098689795 -0.16132976
0.032411985 -0.026709497 -0.15257515
0.032126732 -0.028634667 -0.15211439
0.031841479 -0.030559838 -0.15165362
0.031556211 -0.032485008 -0.15119284
0.031270958 -0.034410179 -0.15073209
0.030985698 -0.036335409 -0.15027131
0.037877388 0.0093971491 -0.16327278
0.032457471 -0.027181268 -0.15451817
0.032172218 -0.029106438 -0.15405741
0.031886965 -0.031031609 -0.15359664
0.031601697 -0.032956839 -0.15313587
0.031316444 -0.034881949 -0.15267511
0.031031184 -0.036807179 -0.15221433
0.037922882 0.0089253783 -0.16521582
0.037637614 0.0070002079 -0.16475505
0.032502957 -0.027653039 -0.15646121
0.032217704 -0.029578209 -0.15600045
0.031932451 -0.031503379 -0.15553969
0.031647183 -0.033428609 -0.15507892
0.03136193 -0.03535372 -0.15461814
0.03107667 -0.03727895 -0.15415737
0.0376831 0.0065283775 -0.16669807
0.037397847 0.0046032667 -0.16623731
0.032548442 -0.028124869 -0.15840423
0.03226319 -0.03004998 -0.15794347
0.031977937 -0.03197515 -0.15748271
0.031692669 -0.03390038 -0.15702194
0.031407416 -0.035825551 -0.15656117
0.031122155 -0.037750721 -0.15610039
0.030836903 -0.039675891 -0.15563963
0.037728585 0.0060566068 -0.16864108
0.037443332 0.004131496 -0.16818032
0.037158072 0.0022062659 -0.16771954
0.032879196 -0.02667141 -0.16080801
0.032593928 -0.02859664 -0.16034724
0.032308675 -0.03052175 -0.15988648
0.032023422 -0.032446921 -0.15942571
0.031738155 -0.034372151 -0.15896493
0.031452902 -0.036297321 -0.15850417
0.031167641 -0.038222492 -0.1580434
0.037488818 0.0036596656 -0.17012335
0.037203558 0.0017344952 -0.16966258
0.036918297 -0.00019067526 -0.16920182
0.033495203 -0.02329284 -0.1636726
0.033209935 -0.02521801 -0.16321182
0.032924682 -0.02714318 -0.16275105
0.032639414 -0.02906841 -0.16229028
0.037534304 0.0031878948 -0.17206638
0.037249044 0.0012627244 -0.1716056
0.036963783 -0.00066244602 -0.17114484
0.033540688 -0.02376461 -0.16561562
0.033255421 -0.02568984 -0.16515484
0.037294529 0.00079089403 -0.17354864
0.037009276 -0.0011342168 -0.17308787
0.033871427 -0.022311211 -0.16801941
0.033586174 -0.024236381 -0.16755866
0.037340015 0.00031912327 -0.17549166
0.037054762 -0.0016060472 -0.17503089
0.033916913 -0.022782981 -0.16996244
0.03363166 -0.024708152 -0.16950168
0.034247652 -0.021329641 -0.1723662
0.033962399 -0.023254812 -0.17190544
0.034293137 -0.021801412 -0.17430927
0.034007885 -0.023726583 -0.17384851
0.034338623 -0.022273183 -0.17625226
0.038545784 0.0080727935 -0.14234912
0.038260531 0.0061476231 -0.14188835
0.037975263 0.004222393 -0.14142758
0.03769001 0.0022972822 -0.14096682
0.03916179 0.011451364 -0.14521369
0.03887653 0.0095261931 -0.14475293
0.038591269 0.0076010227 -0.14429216
0.038306016 0.0056758523 -0.14383139
0.038020749 0.0037506223 -0.14337061
0.037735496 0.0018254519 -0.14290985
0.037450243 -9.9658966e-05 -0.1424491
0.039207276 0.010979593 -0.14715672
0.038922016 0.0090544224 -0.14669596
0.037780982 0.0013536811 -0.14485288
0.037495729 -0.00057142973 -0.14439212
0.037210461 -0.0024966598 -0.14393133
0.036925208 -0.0044218302 -0.14347057
0.036639947 -0.0063470602 -0.1430098
0.039538022 0.012432992 -0.14956053
0.039252762 0.010507822 -0.14909975
0.036970694 -0.0048936009 -0.14541361
0.036685433 -0.006818831 -0.14495283
0.036400173 -0.0087440014 -0.14449207
0.03611492 -0.010669112 -0.14403132
0.03582966 -0.012594342 -0.14357053
0.039583508 0.011961222 -0.15150356
0.039298248 0.010036051 -0.15104279
0.036730919 -0.0072906017 -0.14689587
0.036445666 -0.0092157722 -0.14643511
0.036160406 -0.011140883 -0.14597434
0.035875145 -0.013066113 -0.14551356
0.035589885 -0.014991343 -0.14505279
0.035304625 -0.016916513 -0.14459203
0.035019372 -0.018841624 -0.14413127
0.039628994 0.011489451 -0.15344658
0.039343733 0.0095642209 -0.15298581
0.036205892 -0.011612713 -0.14791736
0.035920631 -0.013537884 -0.14745659
0.035635371 -0.015463114 -0.14699581
0.03535011 -0.017388284 -0.14653505
0.035064857 -0.019313395 -0.1460743
0.034779597 -0.021238625 -0.14561351
0.03967448 0.01101768 -0.15538959
0.035680857 -0.015934885 -0.14893882
0.035395596 -0.017860055 -0.14847806
0.035110343 -0.019785225 -0.1480173
0.034825083 -0.021710396 -0.14755651
0.034539822 -0.023635566 -0.14709575
0.039719965 0.010545909 -0.15733261
0.035155829 -0.020256996 -0.14996032
0.034870569 -0.022182167 -0.14949954
0.034585308 -0.024107337 -0.14903878
0.039765451 0.010074139 -0.15927565
0.034916054 -0.022653997 -0.15144257
0.034630802 -0.024579108 -0.15098181
0.039810937 0.0096023679 -0.16121869
0.039525677 0.0076771379 -0.16075791
0.03496154 -0.023125768 -0.15338561
0.034676287 -0.025050879 -0.15292485
0.039856423 0.0091305375 -0.16316171
0.039571162 0.0072053671 -0.16270094
0.039285909 0.0052801967 -0.16224018
0.035007026 -0.023597538 -0.15532863
0.034721773 -0.025522709 -0.15486787
0.039616648 0.0067335963 -0.16464397
0.039331395 0.0048084259 -0.16418321
0.039046135 0.0028831959 -0.16372243
0.035337772 -0.022144079 -0.15773246
0.035052512 -0.024069309 -0.15727167
0.034767259 -0.02599448 -0.15681091
0.039376881 0.0043366551 -0.16612624
0.039091621 0.0024114251 -0.16566545
0.03880636 0.00048625469 -0.16520469
0.0385211 -0.0014389753 -0.16474392
0.035953771 -0.018765569 -0.160597
0.035668518 -0.020690739 -0.16013624
0.035383258 -0.02261591 -0.15967548
0.035097998 -0.02454108 -0.15921469
0.034812745 -0.02646625 -0.15875393
0.039137106 0.0019396544 -0.16760847
0.038851846 1.4483929e-05 -0.1671477
0.038566586 -0.0019107461 -0.16668692
0.036284517 -0.017312109 -0.16300078
0.035999257 -0.019237339 -0.16254
0.035714004 -0.02116251 -0.16207924
0.035428744 -0.02308768 -0.16161847
0.035143483 -0.025012851 -0.1611577
0.039182592 0.0014678836 -0.16955149
0.038897332 -0.00045728683 -0.16909073
0.038612071 -0.0023825169 -0.16862996
0.036330003 -0.01778394 -0.16494381
0.036044743 -0.01970911 -0.16448304
0.03575949 -0.021634281 -0.16402228
0.035474237 -0.023559451 -0.16356152
0.039228078 0.00099611282 -0.17149451
0.038942818 -0.0009290576 -0.17103375
0.038657557 -0.0028542876 -0.17057298
0.036375497 -0.018255711 -0.16688684
0.036090229 -0.020180881 -0.16642606
0.035804976 -0.022106051 -0.1659653
0.038988311 -0.0014008284 -0.17297679
0.038703043 -0.0033260584 -0.17251602
0.036420982 -0.018727481 -0.16882987
0.036135715 -0.020652711 -0.1683691
0.035850462 -0.022577822 -0.16790834
0.039033797 -0.0018726587 -0.17491981
0.038748529 -0.0037978292 -0.17445904
0.036466468 -0.019199252 -0.1707729
0.0361812 -0.021124482 -0.17031212
0.036797214 -0.017745793 -0.17317668
0.036511954 -0.019671023 -0.1727159
0.036226686 -0.021596253 -0.17225513
0.0368427 -0.018217623 -0.17511974
0.03655744 -0.020142794 -0.17465897
0.040570304 0.0073343515 -0.14418107
0.040285051 0.0054091811 -0.14372031
0.039999783 0.0034839511 -0.14325954
0.04090105 0.0087877512 -0.14658488
0.04061579 0.0068625212 -0.14612409
0.040330537 0.0049374104 -0.14566334
0.040045269 0.0030121803 -0.14520256
0.039760016 0.0010870099 -0.1447418
0.039474763 -0.00083810091 -0.14428103
0.041231796 0.010241151 -0.14898868
0.040946536 0.0083159804 -0.14852792
0.040661275 0.0063907504 -0.14806715
0.040376022 0.0044656396 -0.14760637
0.040090755 0.0025404096 -0.1471456
0.039805502 0.00061523914 -0.14668484
0.039520249 -0.0013099313 -0.14622408
0.039234981 -0.0032351017 -0.14576329
0.038949728 -0.0051602721 -0.14530253
0.041277282 0.0097693801 -0.15093172
0.040992029 0.0078442097 -0.15047096
0.040706761 0.0059189796 -0.15001017
0.040421508 0.0039938092 -0.14954941
0.04013624 0.0020686388 -0.14908864
0.039850987 0.00014346838 -0.14862788
0.039565735 -0.001781702 -0.1481671
0.039280474 -0.0037069321 -0.14770633
0.038995214 -0.0056320429 -0.14724557
0.038709953 -0.0075572729 -0.1467848
0.0384247 -0.0094824433 -0.14632404
0.041608028 0.01122278 -0.15333551
0.041322768 0.0092975497 -0.15287474
0.041037515 0.0073724389 -0.15241398
0.040752247 0.0054472089 -0.15195319
0.040466994 0.0035220385 -0.15149243
0.040181734 0.001596868 -0.15103166
0.039896473 -0.00032830238 -0.1505709
0.03961122 -0.0022534728 -0.15011013
0.03932596 -0.0041787028 -0.14964935
0.0390407 -0.0061038136 -0.14918859
0.038755439 -0.0080290437 -0.14872782
0.038470186 -0.0099542141 -0.14826706
0.038184926 -0.011879385 -0.14780629
0.037899666 -0.013804555 -0.14734551
0.041653514 0.010751009 -0.15527852
0.041368254 0.008825779 -0.15481775
0.041083001 0.0069006681 -0.15435699
0.040797733 0.0049754381 -0.15389621
0.04051248 0.0030502677 -0.15343544
0.040227219 0.0011250377 -0.15297467
0.039941959 -0.00080007315 -0.15251391
0.039656706 -0.0027252436 -0.15205315
0.039371446 -0.0046504736 -0.15159236
0.039086185 -0.0065755844 -0.1511316
0.038800925 -0.0085008144 -0.15067083
0.038515672 -0.010425985 -0.15021005
0.038230412 -0.012351155 -0.14974929
0.037945151 -0.014276326 -0.14928852
0.037659891 -0.016201556 -0.14882775
0.037374631 -0.018126726 -0.14836699
0.041699 0.010279238 -0.15722154
0.041413739 0.0083540082 -0.15676077
0.041128486 0.0064288378 -0.15630001
0.040272705 0.00065326691 -0.15491769
0.039987445 -0.0012718439 -0.15445693
0.039416932 -0.0051222444 -0.15353538
0.039131671 -0.0070474148 -0.15307462
0.038846411 -0.0089725852 -0.15261385
0.038561158 -0.010897756 -0.15215307
0.038275898 -0.012822926 -0.15169232
0.037990637 -0.014748156 -0.15123154
0.037705377 -0.016673326 -0.15077077
0.037420116 -0.018598497 -0.15031001
0.037134863 -0.020523667 -0.14984924
0.041744485 0.0098074675 -0.15916458
0.041459225 0.0078822374 -0.1587038
0.041173972 0.005957067 -0.15824305
0.040318191 0.00018149614 -0.15686072
0.039747678 -0.0036687851 -0.15593919
0.039462417 -0.0055940151 -0.15547842
0.039177157 -0.0075191855 -0.15501766
0.038891897 -0.009444356 -0.15455689
0.038606644 -0.011369526 -0.15409613
0.038321391 -0.013294697 -0.15363535
0.038036123 -0.015219927 -0.15317458
0.037750863 -0.017145097 -0.15271381
0.037465602 -0.019070268 -0.15225305
0.037180349 -0.020995438 -0.15179229
0.041504711 0.0074104667 -0.16064684
0.041219458 0.0054852962 -0.16018608
0.04093419 0.0035600662 -0.15972531
0.040648937 0.0016349554 -0.15926453
0.040363677 -0.00029027462 -0.15880376
0.040078416 -0.002215445 -0.158343
0.039793164 -0.0041406155 -0.15788224
0.039507903 -0.0060657859 -0.15742145
0.039222643 -0.0079909563 -0.1569607
0.038937382 -0.0099161863 -0.15649992
0.038652129 -0.011841297 -0.15603915
0.038366877 -0.013766468 -0.15557839
0.038081609 -0.015691698 -0.15511762
0.037796348 -0.017616928 -0.15465684
0.037511088 -0.019542038 -0.15419608
0.037225835 -0.021467209 -0.15373531
0.041550197 0.0069386959 -0.16258986
0.041264944 0.0050135255 -0.1621291
0.040979676 0.0030882955 -0.16166833
0.040694423 0.001163125 -0.16120756
0.040409163 -0.00076204538 -0.16074678
0.040123902 -0.0026872158 -0.16028602
0.039838649 -0.0046123862 -0.15982527
0.039553389 -0.0065375566 -0.15936448
0.039268136 -0.0084627271 -0.15890372
0.038982868 -0.010387957 -0.15844294
0.038697615 -0.012313128 -0.15798217
0.038412362 -0.014238238 -0.15752141
0.038127095 -0.016163468 -0.15706064
0.037841834 -0.018088698 -0.15659986
0.037556581 -0.020013809 -0.15613911
0.037271321 -0.02193898 -0.15567833
0.04131043 0.0045417547 -0.16407214
0.041025169 0.0026165247 -0.16361135
0.040739909 0.00069135427 -0.16315059
0.040454648 -0.0012338161 -0.16268982
0.040169396 -0.0031589866 -0.16222906
0.039884135 -0.005084157 -0.16176829
0.039598875 -0.007009387 -0.16130751
0.039313622 -0.0089344978 -0.16084675
0.039028354 -0.010859728 -0.16038598
0.038743101 -0.012784898 -0.15992522
0.038457848 -0.014710009 -0.15946445
0.03817258 -0.016635239 -0.15900367
0.03788732 -0.018560469 -0.1585429
0.037602067 -0.02048564 -0.15808214
0.037316807 -0.02241075 -0.15762138
0.041070655 0.0021447539 -0.16555437
0.040785395 0.00021958351 -0.16509362
0.040500134 -0.0017056465 -0.16463284
0.040214881 -0.0036307573 -0.16417208
0.039929621 -0.0055559278 -0.16371131
0.039644361 -0.0074811578 -0.16325054
0.039359108 -0.0094062686 -0.16278978
0.03907384 -0.011331499 -0.162329
0.038788587 -0.013256669 -0.16186824
0.038503334 -0.015181839 -0.16140747
0.038218066 -0.01710701 -0.1609467
0.037932806 -0.01903224 -0.16048592
0.037647553 -0.02095741 -0.16002516
0.04083088 -0.00025218725 -0.16703662
0.04054562 -0.0021774173 -0.16657585
0.040260367 -0.0041025281 -0.16611509
0.039975107 -0.0060276985 -0.16565433
0.039689846 -0.0079529285 -0.16519354
0.039404593 -0.009878099 -0.16473278
0.039119326 -0.011803269 -0.16427201
0.038834073 -0.01372844 -0.16381124
0.03854882 -0.01565361 -0.16335048
0.038263552 -0.017578781 -0.1628897
0.037978292 -0.019504011 -0.16242893
0.040591106 -0.002649188 -0.16851889
0.040305853 -0.0045743585 -0.16805813
0.040020593 -0.0064994693 -0.16759735
0.039735332 -0.0084246993 -0.16713658
0.039450079 -0.01034987 -0.16667582
0.039164811 -0.01227504 -0.16621505
0.038879558 -0.014200211 -0.16575429
0.038594306 -0.016125381 -0.16529351
0.038309038 -0.018050611 -0.16483274
0.038023777 -0.019975781 -0.16437197
0.040636592 -0.0031209588 -0.17046191
0.040351339 -0.0050461292 -0.17000115
0.040066086 -0.00697124 -0.16954038
0.039780818 -0.0088964701 -0.1690796
0.039495565 -0.01082164 -0.16861884
0.039210297 -0.012746871 -0.16815807
0.038925044 -0.014671981 -0.16769731
0.038639791 -0.016597152 -0.16723654
0.038354531 -0.018522382 -0.16677576
0.040682077 -0.0035927296 -0.17240494
0.040396824 -0.0055179 -0.17194419
0.040111572 -0.0074430704 -0.17148343
0.039826304 -0.0093682408 -0.17102264
0.039541051 -0.011293411 -0.17056188
0.03925579 -0.013218641 -0.17010111
0.03897053 -0.015143752 -0.16964033
0.038685277 -0.017068923 -0.16917957
0.038400017 -0.018994153 -0.1687188
0.041012831 -0.0021393299 -0.17480874
0.040727563 -0.0040645003 -0.17434797
0.04044231 -0.0059896708 -0.17388721
0.040157057 -0.0079148412 -0.17342645
0.03987179 -0.0098400116 -0.17296566
0.039586537 -0.011765182 -0.1725049
0.039301276 -0.013690412 -0.17204413
0.039016016 -0.015615582 -0.17158335
0.038730763 -0.017540693 -0.1711226
0.040773049 -0.0045362711 -0.17629097
0.040487796 -0.0064614415 -0.17583022
0.039346762 -0.014162183 -0.17398714
0.039061502 -0.016087353 -0.17352638
0.038776249 -0.018012464 -0.1730656
0.039106995 -0.016559124 -0.17546943
0.038821734 -0.018484294 -0.17500867
0.042400539 0.003727138 -0.14943834
0.043016545 0.0071057677 -0.15230291
0.042731278 0.0051805377 -0.15184212
0.042446025 0.0032553673 -0.15138136
0.042160764 0.0013301969 -0.15092058
0.041875504 -0.00059497356 -0.15045983
0.041590251 -0.002520144 -0.14999905
0.041304991 -0.004445374 -0.14953828
0.043062031 0.006633997 -0.15424591
0.042776763 0.0047087669 -0.15378514
0.042491511 0.0027835965 -0.15332437
0.04220625 0.00085836649 -0.15286359
0.04192099 -0.0010667443 -0.15240283
0.041635737 -0.0029919147 -0.15194207
0.041350476 -0.0049171448 -0.15148129
0.043107517 0.0061621666 -0.15618894
0.042822249 0.0042369962 -0.15572816
0.042536996 0.0023118258 -0.15526739
0.042251736 0.00038659573 -0.15480661
0.041966476 -0.0015385151 -0.15434586
0.041681223 -0.0034636855 -0.1538851
0.041395962 -0.0053889155 -0.15342431
0.041110702 -0.007314086 -0.15296355
0.043153003 0.0056903958 -0.15813197
0.042867735 0.0037652254 -0.15767118
0.042582482 0.001840055 -0.15721042
0.042297222 -8.5175037e-05 -0.15674965
0.042011961 -0.0020103455 -0.15628889
0.041726708 -0.0039354563 -0.15582812
0.041441448 -0.0058606863 -0.15536734
0.043198489 0.0052186251 -0.16007501
0.042913221 0.003293395 -0.15961424
0.042627968 0.0013682842 -0.15915346
0.042342708 -0.0005569458 -0.15869269
0.042057447 -0.0024821162 -0.15823193
0.041772194 -0.0044072866 -0.15777117
0.041486934 -0.0063324571 -0.15731038
0.042673454 0.00089645386 -0.16109648
0.042388193 -0.0010287166 -0.16063571
0.042102933 -0.002953887 -0.16017495
0.04181768 -0.0048790574 -0.15971419
0.041338138 -0.0096729398 -0.1626787
0.04105287 -0.01159817 -0.16221793
0.041668877 -0.0082195997 -0.16508247
0.041383624 -0.01014477 -0.16462171
0.041098356 -0.012069941 -0.16416094
0.041999623 -0.0067661405 -0.16748628
0.041714363 -0.0086913705 -0.16702551
0.04142911 -0.010616541 -0.16656475
0.041143842 -0.012541711 -0.16610397
0.042330369 -0.0053128004 -0.16989008
0.042045116 -0.0072379112 -0.1694293
0.041759849 -0.0091631413 -0.16896853
0.041474596 -0.011088312 -0.16850777
0.041189328 -0.013013542 -0.168047
0.042375855 -0.0057845712 -0.17183311
0.042090602 -0.0077097416 -0.17137235
0.041805334 -0.009634912 -0.17091157
0.041520081 -0.011560082 -0.17045081
0.041234821 -0.013485312 -0.16999003
0.042706594 -0.0043311715 -0.17423689
0.042421341 -0.0062563419 -0.17377613
0.042136088 -0.0081815124 -0.17331538
0.04185082 -0.010106683 -0.17285459
0.041565567 -0.012031853 -0.17239383
0.041280307 -0.013957083 -0.17193305
0.04275208 -0.0048029423 -0.1761799
0.042466827 -0.0067281127 -0.17571914
0.042181574 -0.0086532831 -0.17525837
0.041896306 -0.010578454 -0.17479759
0.041611053 -0.012503624 -0.17433684
0.041325793 -0.014428854 -0.17387606
0.041040532 -0.016354024 -0.1734153
0.041371278 -0.014900625 -0.17581913
0.041086026 -0.016825795 -0.17535836
0.044400375 -0.0065229535 -0.17366505
0.044115122 -0.0084481239 -0.17320429
0.044731114 -0.0050695539 -0.17606883
0.044445861 -0.0069947243 -0.17560807
0.044160608 -0.0089198947 -0.17514729
0.04387534 -0.010845065 -0.17468652
0.043590087 -0.012770236 -0.17422576
0.043635573 -0.013242066 -0.17616883
0.043350313 -0.015167236 -0.17570806
0.046424896 -0.0072613955 -0.175497
0.046139643 -0.0091865659 -0.17503622
0.045854375 -0.011111736 -0.17457545
0.045614608 -0.013508737 -0.17605776
0.047593608 -0.013775408 -0.17594668
-0.035016552 0.077156603 -0.14231746
-0.035301812 0.075231433 -0.14185667
-0.034685805 0.078610003 -0.14472124
-0.037538387 0.059358239 -0.14011356
-0.037823655 0.057433009 -0.13965277
-0.038063422 0.055036068 -0.14113505
-0.038303196 0.052639067 -0.14261732
-0.038257711 0.052167296 -0.14456034
-0.034412891 0.075779319 -0.1563794
-0.034367405 0.075307548 -0.15832244
-0.034561686 0.072438836 -0.16174774
-0.0345162 0.071967065 -0.16369076
-0.034710489 0.069098294 -0.16711605
-0.034904771 0.066229582 -0.17054132
-0.035099067 0.06336081 -0.1739666
-0.033037513 0.076889992 -0.14220639
-0.033322774 0.074964821 -0.1417456
-0.032706767 0.078343391 -0.14461017
-0.035844617 0.057166398 -0.1395417
-0.036084384 0.054769456 -0.14102398
-0.036324158 0.052372456 -0.14250624
-0.032285057 0.07885319 -0.15090002
-0.032239571 0.078381419 -0.15284306
-0.03651844 0.049503744 -0.14593154
-0.032194085 0.077909648 -0.15478608
-0.032342881 0.074569166 -0.16015439
-0.032297395 0.074097395 -0.16209742
-0.032537162 0.071700454 -0.16357967
-0.032491677 0.071228623 -0.16552272
-0.032685965 0.068359852 -0.16894799
-0.03264048 0.067888081 -0.170891
