# .PCD v0.7 - Point Cloud Data file format
VERSION 0.7
FIELDS x y z
SIZE 4 4 4
TYPE F F F
COUNT 1 1 1
WIDTH 1292
HEIGHT 1
VIEWPOINT 0 0 0 1 0 0 0
POINTS 1292
DATA ascii
0.526417196 0.447606653 -0.722864568
0.420404166 -0.801992416 -0.424344867
0.379352212 -0.860848308 -0.33916378
0.460131407 -0.77715987 -0.429303646
0.480455309 -0.69506526 -0.534833729
0.465707839 -0.751192868 -0.467787981
0.439022452 -0.530261457 -0.725315094
0.495336562 -0.631965399 -0.596038163
0.474386811 -0.662260652 -0.579972506
0.287582636 0.731853724 -0.617807686
0.316574067 0.800921798 -0.508237243
0.333149791 0.812700391 -0.478047371
0.345454842 0.793619514 -0.500828326
0.323346704 0.812094331 -0.485746503
0.325968027 0.809948862 -0.487573206
0.341539085 0.786309242 -0.514848351
0.351412773 0.744432449 -0.5677405
0.337192386 0.773251951 -0.537012756
0.385045022 0.73817575 -0.553928614
0.388141781 0.718422174 -0.577248275
0.112643249 0.931615591 -0.345548719
-0.0834164098 0.916331053 -0.391636461
-0.0834210813 0.916690171 -0.390794158
0.415066004 0.702475309 -0.578142405
0.427870125 0.672652304 -0.603710234
-0.0641303509 0.962198973 -0.264689416
0.434403241 0.643822551 -0.629909813
0.407982886 0.666174471 -0.624308825
-0.239941269 0.962931693 0.123250902
0.456489176 0.6385203 -0.61960423
0.465847015 0.618243754 -0.633056998
0.541660845 -0.806454301 -0.237139285
0.43149817 0.64913857 -0.626441121
0.512061298 -0.81478399 -0.271882623
0.358098745 0.356734544 0.862847447
0.332616508 -0.909816504 -0.248193949
0.464576572 0.574145794 -0.674184799
0.454090863 0.595199049 -0.662977755
0.496368796 -0.810864091 -0.310028017
0.380741149 -0.894546866 -0.234141275
0.454105049 0.577550888 -0.678397775
0.484950274 0.525461614 -0.699080348
0.338786483 -0.940608978 -0.0218744148
0.490607381 0.548469007 -0.677116036
0.520005882 0.477561533 -0.708187044
0.419382453 -0.884020269 -0.206461996
0.48105514 0.473786235 -0.737639904
0.530331194 0.474710077 -0.702423811
0.48437494 0.467365831 -0.739560783
0.512415648 0.429652333 -0.743524849
0.412065953 -0.859613419 -0.302103162
0.456619442 0.450495034 -0.767172039
0.464694083 0.303016305 -0.832009912
0.487205744 -0.768757284 -0.414297968
0.502215981 -0.737315476 -0.451824099
0.489537835 -0.751114368 -0.442921937
0.531637967 -0.643465459 -0.550738931
0.512949824 -0.679483116 -0.524581015
0.462762088 -0.524097383 -0.714963794
0.439944685 -0.515465021 -0.735353351
0.489020616 -0.575690627 -0.655316055
0.3280783 0.752298474 -0.571324527
0.273368269 0.81790787 -0.506257236
0.294524431 0.807769239 -0.510650754
0.304853112 0.823024154 -0.479265958
0.302045912 0.820699811 -0.484995037
0.302045912 0.820678473 -0.485031009
0.343463451 0.749899149 -0.565406203
0.344355524 0.759605229 -0.551741958
0.361301303 0.750555277 -0.55328846
0.367506504 0.714093089 -0.595827162
0.091754891 0.81970489 -0.565389276
0.42263481 0.68988204 -0.58774358
0.41831708 0.675992727 -0.606666803
0.080466114 0.950626969 -0.299722344
0.42250675 0.659949362 -0.621252537
-0.0995370969 0.985006571 -0.140905678
0.461670756 0.618238568 -0.63611412
-0.145097241 0.989373565 0.00932066608
0.44217819 0.641109824 -0.627261162
-0.247138411 0.954674602 0.165888608
0.445792437 0.641881824 -0.623904467
0.293569475 -0.939327121 -0.177430153
0.487453848 0.588888168 -0.644670069
0.492651314 0.578538418 -0.650067687
0.420197994 0.261246204 0.869013309
0.482490033 0.573710024 -0.661861181
0.499899864 -0.801894188 -0.327209055
0.284744918 -0.945136368 -0.160117254
0.55259937 0.480810344 -0.680775523
0.529214442 0.485159308 -0.69609803
0.578010201 0.451289207 -0.679883897
0.441018581 -0.876453221 -0.193215683
0.54851371 0.461206943 -0.697438836
0.578544199 0.453543365 -0.677927017
0.462354809 -0.847802281 -0.259729207
0.55518043 0.470218509 -0.686053455
0.567276776 0.453287423 -0.687551856
0.499503821 -0.821851909 -0.273962319
0.447024882 -0.853653431 -0.267291099
0.542594552 0.422190279 -0.726186275
0.554712176 0.381862849 -0.739239573
0.495492458 -0.78588438 -0.369963437
0.534367383 0.339021176 -0.774284303
0.538152337 0.316457957 -0.781182766
0.53927958 -0.703581214 -0.462764591
0.502996624 -0.753717244 -0.422971219
0.409112453 0.237437293 -0.881050825
0.519908845 -0.66298759 -0.538648427
0.518368423 -0.697876573 -0.494229198
0.514041126 -0.558198512 -0.651288152
0.50699532 -0.60820514 -0.610771835
0.528132558 -0.652167499 -0.543832242
0.479385495 -0.426339775 -0.767087936
0.575075686 -0.512063324 -0.63802743
0.533105433 -0.560055256 -0.634142578
0.273505181 0.821722925 -0.499966353
0.297107071 0.792261064 -0.532963336
0.287307471 0.827512503 -0.482366502
0.363639742 0.771092057 -0.522669375
0.356729567 0.732843518 -0.579382777
0.355926245 0.782333255 -0.511146843
0.378423095 0.711005747 -0.592677593
0.408775121 0.69481492 -0.59172219
0.11427661 0.971496642 -0.207690075
0.424659044 0.65454942 -0.625483632
0.478209734 0.606492221 -0.635202825
0.501862943 0.615941286 -0.607247889
-0.147838861 0.983179867 -0.10724254
0.449850589 0.650275052 -0.612190187
-0.247154817 0.95690012 0.152501583
0.466909766 0.614994943 -0.635434151
0.458255947 0.625535965 -0.631431937
0.254457563 -0.942775309 -0.215466991
0.471149802 0.595561862 -0.650633454
0.667441964 0.343037337 -0.660943747
0.529788077 0.550033092 -0.645591378
0.600792289 0.212144271 -0.770742118
0.418937117 -0.886914194 -0.194615126
0.545962036 0.502343893 -0.670504332
0.57787174 0.451154619 -0.680090964
nan nan nan
0.500724137 -0.768868148 -0.397639453
-0.165559962 0.983789682 0.06890513
0.570796907 0.466791183 -0.675497532
0.607938707 0.419823378 -0.673913121
0.432781279 -0.874846697 -0.217585668
0.586738288 0.435837984 -0.682483256
0.586345494 0.453160614 -0.671449542
0.470481336 -0.843091369 -0.260469139
0.601348102 0.440009981 -0.66691196
0.588222682 0.469978809 -0.658113956
0.459082037 -0.841711938 -0.28419134
0.46563682 -0.835477293 -0.291821986
0.581085622 0.456894368 -0.673488617
0.598382592 0.419924766 -0.68234992
0.503709912 -0.818262398 -0.276989102
0.54058671 0.444258124 -0.714423299
0.558045983 0.35935849 -0.747961342
0.567223966 0.327862799 -0.755488515
0.530161619 -0.75601995 -0.383878171
0.516945302 0.36478281 -0.774403691
0.519840956 0.316384256 -0.793515265
0.555975735 0.249896064 -0.792743921
0.534663856 -0.667688429 -0.51800257
0.512190521 -0.724977434 -0.460509181
0.540220678 0.245652661 -0.804870427
0.479961216 0.145592809 -0.865124226
0.588216543 -0.556170642 -0.587090671
0.559996009 -0.636185467 -0.530728221
0.540697157 -0.653766572 -0.52937305
0.571458101 -0.4692716 -0.673215985
0.531777143 -0.5130409 -0.673796892
0.554564297 -0.527259827 -0.643782258
0.573994398 -0.550453246 -0.606243968
0.540644169 -0.496058762 -0.679433346
0.292977124 0.802412689 -0.519902229
0.292189479 0.805902243 -0.51492399
0.312636614 0.81987685 -0.479645878
0.328747123 0.797106862 -0.506503642
0.340159446 0.744475305 -0.574498057
0.345921069 0.765765727 -0.54216367
0.38246128 0.729174614 -0.567474782
0.38760373 0.695863664 -0.604596734
0.426562548 0.675689757 -0.601238608
0.436392039 0.648806036 -0.623388052
0.471283674 0.595679402 -0.650428832
-0.218698725 0.967467844 -0.127188355
0.448360294 0.650221705 -0.613339067
-0.231714338 0.971922815 0.0409212634
0.503578424 0.613794744 -0.608000636
0.522425652 0.602156937 -0.603720427
0.295689702 -0.939466536 -0.173119113
0.508866966 0.589872539 -0.626980543
0.577688754 0.484893531 -0.656623065
0.664103031 0.339647353 -0.666038215
0.308464199 -0.898572445 -0.312117696
0.571882784 0.482014507 -0.663786113
0.625703335 0.412190497 -0.662264526
0.375502765 -0.888174891 -0.264845312
0.614472806 0.412361592 -0.672592819
0.608343124 0.442709386 -0.658731282
0.619325638 0.413517147 -0.6674124
0.581537664 0.443667859 -0.681889117
0.418906301 -0.884317458 -0.206155598
0.593402982 0.450256258 -0.667189717
0.567507088 0.437643915 -0.697426319
0.421089977 -0.856731713 -0.297815353
0.607935131 0.443171859 -0.658797026
0.469795853 -0.811049283 -0.348555475
0.450018883 -0.845337033 -0.287903458
0.60071218 0.444942236 -0.66420728
0.644138217 0.394299418 -0.65544939
0.502273321 -0.775963247 -0.381579131
0.600338936 0.358216166 -0.715034485
0.638553977 0.308921844 -0.704851806
0.660701871 0.277919918 -0.697304547
0.554216206 -0.669152021 -0.495055497
0.523200214 -0.737969339 -0.426219225
0.594452977 0.291004628 -0.749627948
0.617074907 0.242852375 -0.748492658
0.621461928 0.207778096 -0.755389571
0.595641196 -0.563186169 -0.572741568
0.573066533 -0.632450283 -0.521153867
0.551214516 -0.651293993 -0.521515787
0.591106653 0.229462057 -0.773265898
0.599137485 0.162370875 -0.78400898
0.581967831 0.143024758 -0.800535619
0.545275688 0.0826467127 -0.834172606
0.563111246 -0.559488297 -0.60817647
0.567420185 -0.56627506 -0.597801745
0.586438715 -0.558062673 -0.587073863
0.594739437 -0.595149338 -0.540446401
0.404773861 -0.0838821605 -0.910561323
0.420660168 -0.186320946 -0.887879193
0.50709784 -0.356925786 -0.784509897
0.550686717 -0.472350508 -0.688207269
0.571144581 -0.546778917 -0.612230897
0.379356265 0.774540305 -0.506138444
0.365773797 0.807305336 -0.463106573
0.372470886 0.751271069 -0.544845998
0.36782971 0.737859786 -0.565918922
0.385299385 0.768526971 -0.510794222
0.410430759 0.732280791 -0.54342562
0.413832754 0.690858006 -0.592838645
0.481961161 0.64726305 -0.590562522
0.502488196 0.639596045 -0.581740856
0.461181164 0.633522928 -0.621257246
0.471136719 0.595578849 -0.650627434
0.473078758 0.600386143 -0.644773483
0.502659082 0.581208348 -0.639945865
0.379854739 -0.916330516 -0.126683667
0.533251286 0.557801902 -0.636003256
0.335119814 -0.920592606 -0.200509325
0.578923404 0.521805346 -0.626551569
0.583901346 0.499264807 -0.640151381
0.282548904 -0.913673699 -0.292175472
0.564897954 0.477928698 -0.672662199
0.573925734 0.44810918 -0.685424924
0.667129099 0.344429195 -0.660535574
0.345404029 -0.887831509 -0.304058075
0.594822586 0.415397406 -0.68820858
0.548654318 0.461334676 -0.69724369
0.581736028 0.475515991 -0.659899771
0.537832975 0.498448223 -0.679915488
0.342571288 -0.901636899 -0.26399976
0.559733093 0.455149919 -0.692486405
0.404111594 -0.866194308 -0.293940902
0.560510457 0.486462981 -0.670210242
0.605448663 0.402929574 -0.686352432
0.646583438 0.339701504 -0.683032036
0.42214787 -0.856768608 -0.29620716
0.599472523 0.416132182 -0.683715403
0.647856414 0.339629352 -0.681860626
0.674637794 0.315297186 -0.667421579
0.480544537 -0.787369132 -0.386169374
0.665753782 0.364618063 -0.651018918
0.678812087 0.320257246 -0.660794497
0.687435985 0.270407885 -0.674026191
0.560652733 -0.689434528 -0.458637685
0.531288028 -0.732326627 -0.425946891
0.679282308 0.27555719 -0.680179298
0.670799613 0.282873005 -0.68557328
0.684359074 0.223225951 -0.694134533
0.627498984 -0.566951454 -0.533676863
0.594719112 -0.632976711 -0.495630652
0.589170218 -0.642542541 -0.489915907
0.645447016 0.235408068 -0.726623058
0.644366384 0.209485561 -0.735464334
0.628434598 0.152508125 -0.762765467
0.604940236 -0.576327264 -0.549448967
0.60945946 -0.56791687 -0.55319941
0.611901224 -0.559710741 -0.558838785
0.603877842 -0.614618719 -0.507518828
0.632225573 0.127954856 -0.764145494
0.570512831 0.0811431333 -0.817270458
0.570763946 -0.0996381789 -0.81504643
0.610922575 -0.230700523 -0.757331431
0.600309253 -0.388444841 -0.699099004
0.584287047 -0.483745366 -0.651612699
0.568324804 -0.564409196 -0.598706305
0.615146339 -0.567682028 -0.547112525
0.535654545 -0.0953600854 -0.839035511
0.578900576 -0.217011169 -0.78599
0.603549302 -0.380483657 -0.70068562
0.598576248 -0.470442921 -0.648374796
0.394287944 0.782436728 -0.482005954
0.396655679 0.76812011 -0.50264889
0.392396688 0.741714954 -0.543951988
0.381145775 0.754849315 -0.533788562
0.401244044 0.693543553 -0.598331451
0.45381397 0.64414221 -0.615738332
0.456470609 0.653290689 -0.604024768
0.510369182 0.598113418 -0.617886484
0.487612456 0.58899951 -0.64444834
0.481446028 0.59247905 -0.645893455
0.385349989 -0.916689694 -0.105760708
0.559518218 0.51257354 -0.651312351
0.566284239 0.493776232 -0.659929693
0.579809189 0.527674317 -0.62079078
nan nan nan
0.335745573 -0.92120558 -0.196609005
0.554411709 0.5097422 -0.657868087
0.564021587 0.477826476 -0.673469722
0.569161773 0.457648098 -0.683090806
0.521960497 0.480561376 -0.704711318
nan nan nan
0.345390618 -0.887994647 -0.303596586
0.541028857 0.467935264 -0.698802054
0.358317316 -0.877290785 -0.31932652
0.596621275 0.454369128 -0.661507189
0.390415072 -0.876932383 -0.280295551
0.573670685 0.436384082 -0.693160057
0.630262554 0.352886081 -0.691549361
0.405352026 -0.86813122 -0.286422551
0.638975143 0.369302213 -0.674778998
0.68037796 0.291949093 -0.67219907
0.678377867 0.293527305 -0.67353189
0.484024972 -0.789958656 -0.376410961
0.691023052 0.302957773 -0.65628016
0.700342834 0.299975604 -0.647714794
0.665912628 0.342292666 -0.662869513
0.584432364 -0.650132537 -0.485557973
0.51538527 -0.732402802 -0.444931716
0.696027279 0.308841825 -0.648199558
0.677194536 0.306406409 -0.668971419
0.637605906 0.317324549 -0.701971352
0.645561755 -0.551927686 -0.527850211
0.594505191 -0.632779121 -0.496139318
0.58903265 -0.642336607 -0.490351021
0.671062648 0.246826515 -0.699107707
0.639797509 0.282737434 -0.714645922
0.654259682 0.201021969 -0.729064167
0.642874599 -0.572380722 -0.509011328
0.645921052 -0.563870013 -0.514622748
0.651334703 -0.554831207 -0.51761508
0.604035497 -0.614843965 -0.507058322
0.622538805 0.170949206 -0.763689637
0.615229607 0.0734974369 -0.784914434
0.659743547 -0.119901493 -0.741863847
0.690758169 -0.300070435 -0.657883763
0.68615222 -0.401678205 -0.606506288
0.665517867 -0.471624106 -0.578495145
0.626311839 -0.569098771 -0.532785118
0.627804518 -0.567255795 -0.532993674
0.61765784 0.0804547146 -0.782320857
0.64385128 -0.11778789 -0.756030202
0.665966868 -0.286667794 -0.688701451
0.676975787 -0.401896358 -0.616589963
0.666397929 -0.467347205 -0.580947816
0.46496129 0.774738491 -0.428475529
0.444716364 0.748712122 -0.491586804
0.39975664 0.761508822 -0.510195017
0.429555386 0.700038671 -0.570463002
0.450741023 0.651345134 -0.610395133
0.45380339 0.636991382 -0.623140872
0.496885717 0.597751379 -0.629124641
0.52702719 0.59137547 -0.610342026
0.506940305 0.56640327 -0.649768293
0.39625144 -0.908066988 -0.13564308
0.534689724 0.52965039 -0.658465922
0.537786722 0.511418223 -0.670251369
0.347871602 -0.930526614 -0.114479527
0.545289695 0.486878246 -0.682355285
0.542077363 0.496275246 -0.678132057
nan nan nan
0.373132348 -0.920886159 -0.112875752
0.5646227 0.52688241 -0.635292232
0.552919686 0.500990391 -0.665799081
0.57281822 0.497865885 -0.651159525
0.384530097 -0.868561566 -0.312629908
0.532537878 0.492031395 -0.688700676
0.580828369 0.433276862 -0.689136922
0.337502509 -0.886829674 -0.315634876
0.565077186 0.440468192 -0.697621346
0.607893527 0.376984894 -0.698818922
0.615344942 0.435552239 -0.656996727
0.675978363 0.320601851 -0.663526714
0.684476793 0.299812704 -0.664532721
0.480110168 -0.808801472 -0.339609087
0.397725791 -0.868677676 -0.295318991
0.654060423 0.307973623 -0.690910399
0.661538482 0.285763532 -0.693329632
0.621996284 0.34017083 -0.705269098
0.49101904 -0.774518132 -0.398775548
0.669945955 0.295073181 -0.681252003
0.642866135 0.356828392 -0.677788079
0.611251116 0.379929215 -0.694280863
0.584611595 -0.65033406 -0.485072106
0.548087597 -0.728828251 -0.410377234
0.625977993 0.339991599 -0.701824188
0.616475523 0.368518084 -0.695810556
0.595673442 0.350790769 -0.722578049
0.632962525 -0.553845346 -0.540937901
0.605258524 -0.61221379 -0.508779347
0.589111149 -0.642267644 -0.490347236
0.608837068 0.347573847 -0.713098884
0.604269564 0.31179297 -0.733241618
0.612414479 0.212631762 -0.761404097
0.648949742 -0.55779922 -0.517420828
0.633128107 -0.565686405 -0.528344274
0.636698663 -0.557359815 -0.532883406
0.620024323 -0.592943013 -0.513798118
0.622787893 0.272750556 -0.73330915
0.612928033 0.199609011 -0.764509976
0.636925638 0.053873919 -0.769040465
0.6995188 -0.180962116 -0.691322029
0.70662123 -0.315820038 -0.63320154
0.702688336 -0.410170585 -0.581368387
0.692011774 -0.482315451 -0.537114024
0.661739707 -0.562971473 -0.495140076
0.639033616 -0.564993382 -0.521937311
0.646182537 0.0303311832 -0.762579978
0.654167354 -0.20104222 -0.729141355
0.679260015 -0.318055332 -0.661397398
0.67862457 -0.431125879 -0.594642043
0.666266143 -0.467238665 -0.581186295
0.682651877 -0.207291633 -0.700725675
0.46752581 0.774278939 -0.426511049
0.417513281 0.773023009 -0.477617145
0.437546641 0.767073035 -0.469203502
0.480727822 0.713689446 -0.50945878
0.479428738 0.641011477 -0.599376619
0.519966483 0.600119829 -0.607857704
0.502664626 0.611673355 -0.610887945
0.514765501 0.582526028 -0.629031003
0.548924923 0.56423682 -0.616699398
0.564753473 0.533656001 -0.62949568
0.534247875 0.549248815 -0.642576814
0.371659666 -0.924302101 -0.0868027881
0.535901845 0.515951991 -0.668283463
0.548352838 0.475201726 -0.688107908
0.371609181 -0.923979461 -0.0903808177
0.556070268 0.470696092 -0.685004473
0.533586502 0.493027359 -0.687175035
0.572553277 0.497618437 -0.651581585
0.371503323 -0.903605819 -0.213264942
0.552396894 0.500468075 -0.666625321
0.605127454 0.428498596 -0.670976639
nan nan nan
0.427769691 -0.855484426 -0.291821182
0.597868502 0.423226714 -0.680758595
0.644374192 0.353216916 -0.678247511
0.644159377 0.316382408 -0.696391284
0.417768419 -0.838106692 -0.350780278
0.625421166 0.351416886 -0.69667393
0.662492812 0.30202809 -0.685479641
0.42033428 -0.842262149 -0.337510854
0.674228966 0.296428263 -0.676421225
0.655778646 0.349192679 -0.669342101
0.594150782 0.353081375 -0.722715974
0.48714146 -0.786082089 -0.380484015
0.637217045 0.308078527 -0.706429183
0.599627018 0.38012284 -0.704240084
0.588981926 -0.682248771 -0.433170706
0.532655656 -0.740045786 -0.410621703
0.617378771 0.372041911 -0.693129361
0.55542922 0.445429623 -0.702204227
0.657810688 -0.543966055 -0.520947158
0.60860312 -0.620869815 -0.494088024
0.607364535 -0.625436246 -0.489834577
0.55985117 0.40301913 -0.723976672
0.545525551 0.362706184 -0.755543649
0.639999807 -0.566738069 -0.51885277
0.654250503 -0.534003258 -0.535534203
0.650587678 -0.544233918 -0.529665053
0.609211981 -0.594496787 -0.52481842
0.552335262 0.339526087 -0.761346102
0.561905384 0.167378679 -0.810090601
0.624704242 -0.00404916983 -0.780850947
0.671075404 -0.238387406 -0.702017963
0.683555484 -0.360398352 -0.634716451
0.666415811 -0.429253638 -0.609615624
0.66745764 -0.48334977 -0.566456735
0.632717013 -0.567585588 -0.526797593
0.567023993 0.212805122 -0.795737207
0.632122636 -0.0308469348 -0.774254143
0.659329236 -0.219296411 -0.719162047
0.672052622 -0.376506478 -0.637642562
0.654385269 -0.459504515 -0.600529373
0.679430246 -0.484581947 -0.550958216
0.692429662 -0.278677285 -0.665492356
0.415105015 0.816666603 -0.400928289
0.505250156 0.739747822 -0.444404542
0.468403667 0.765011072 -0.441990942
0.514713764 0.704486966 -0.48863858
0.500014007 0.680400312 -0.535762429
0.520164788 0.609073043 -0.598714113
0.563475668 0.598471522 -0.569497108
0.518548846 0.584257007 -0.624300301
0.552096844 0.553538382 -0.623525739
0.53751272 0.571446955 -0.620103657
0.523044944 0.552633166 -0.648861051
0.543600261 0.542045772 -0.640847206
0.552143157 0.480522007 -0.681349099
0.404928237 -0.909115076 -0.0976876095
0.538926423 0.4979752 -0.679396093
0.568707228 0.457250386 -0.683735371
0.404403269 -0.895769238 -0.184541211
0.56434983 0.478086531 -0.673010111
0.619479835 0.413645953 -0.667189479
0.464427263 -0.856133997 -0.226587653
0.625322998 0.400600284 -0.669694424
0.652466178 0.325741142 -0.684237242
0.659265935 0.333640665 -0.673834085
0.611415446 0.39290148 -0.686876774
0.425924033 -0.846244395 -0.32009241
0.598976612 0.346244365 -0.722040057
0.535692513 0.437128216 -0.722462773
0.491065174 -0.759959102 -0.425813526
0.457259774 -0.795342267 -0.39792484
0.547810435 0.419843286 -0.723626554
0.495028675 0.45951435 -0.737423301
0.508392811 -0.734145641 -0.450074285
0.523455381 0.438190341 -0.730741858
0.456510276 0.51261431 -0.727203488
0.677789688 -0.52871865 -0.510937989
0.630273342 -0.581366837 -0.51455617
0.62823683 -0.625922322 -0.462103516
0.480831981 0.474366158 -0.737412632
0.451249719 0.388169527 -0.803553462
0.639116824 -0.559823394 -0.527377903
0.645692885 -0.576378405 -0.500867963
0.662907243 -0.540306866 -0.518288016
0.631619573 -0.57987529 -0.514588535
0.499586374 0.360788077 -0.787556648
0.522371113 0.177228481 -0.834097326
0.606980443 -0.0610734038 -0.792366564
0.617194712 -0.347306371 -0.706009209
0.613785863 -0.407713264 -0.676044941
0.619268835 -0.488702834 -0.614553213
0.632258594 -0.551713288 -0.543931544
0.643647194 -0.565234303 -0.51597333
0.630439937 -0.543000638 -0.554703355
0.554798841 0.143592283 -0.819499493
0.563637376 -0.103130996 -0.819559038
0.583948016 -0.308989316 -0.750686586
0.614008367 -0.408299416 -0.675488889
0.606275856 -0.481527179 -0.632899046
0.638401926 -0.074388884 -0.766100109
0.655176699 -0.322613835 -0.683127999
0.568264306 0.651531935 -0.502575159
0.57860297 0.611248732 -0.539993942
0.586171687 0.618386567 -0.523450911
0.576207399 0.571244597 -0.584520936
0.57563597 0.570244789 -0.58605814
0.533480108 0.564151943 -0.630183816
0.557455003 0.562470198 -0.610631824
0.564230442 0.531747758 -0.631576061
0.577676892 0.484921247 -0.656613111
0.39273119 -0.913582921 -0.105490886
0.549880981 0.476793647 -0.685783327
0.601763666 0.416878104 -0.681243777
0.46660471 -0.854411602 -0.228606373
0.590360641 0.424714744 -0.686361253
0.639553845 0.368409038 -0.674718857
0.469751537 -0.865348637 -0.174657211
0.645439625 0.377228528 -0.664158285
0.614806652 0.412581682 -0.672152579
0.517607272 -0.821131766 -0.240468785
0.602655351 0.376211494 -0.70375526
0.538707078 0.472138405 -0.697767854
0.471828908 -0.838644922 -0.272125095
0.556656599 0.434676319 -0.707947731
0.502191067 0.488090277 -0.713843167
0.508312225 -0.782255411 -0.360132188
0.47893396 0.493348926 -0.726105452
0.421771824 0.498064846 -0.75765425
0.566887558 -0.713202119 -0.412287861
0.425141603 0.538136899 -0.727779686
0.653575122 -0.512015045 -0.557386935
0.62812078 -0.613271713 -0.478917599
0.627361715 -0.615928352 -0.476497293
0.360325873 0.563351929 -0.743505061
0.698743403 -0.50177139 -0.509885371
0.66183126 -0.54767096 -0.511894405
0.649174631 -0.544412553 -0.531212866
0.4001773 0.33005774 -0.854938626
0.713236749 -0.517802238 -0.472413123
0.725664973 -0.526047111 -0.443491638
0.683731556 -0.541498363 -0.489173621
0.433480531 0.304088235 -0.848307133
0.554340839 0.0548057295 -0.830483437
0.672981679 -0.109857015 -0.731455445
0.640418351 -0.369393766 -0.673359215
0.628403366 -0.453805923 -0.631798565
0.60110265 -0.532999575 -0.595472097
0.626098037 -0.566335082 -0.53597182
0.627655983 0.106450036 -0.771178544
0.638018727 -0.180411607 -0.748587787
0.617205501 -0.340933919 -0.709099054
0.617860138 -0.44682458 -0.646990478
0.660549462 0.621662021 -0.420964122
0.591272891 0.670874119 -0.447576046
0.60528177 0.559015632 -0.56668812
0.648074269 0.503709018 -0.571206629
0.629047096 0.5195539 -0.578241765
0.590499759 0.578221262 -0.563001156
0.560318649 0.596645951 -0.574505627
0.610179186 0.556348979 -0.564054251
0.567824781 0.539200842 -0.621962547
0.578576624 0.521585166 -0.627054989
0.604588151 0.471696436 -0.641853273
0.593400359 0.456882119 -0.66267252
0.63406688 0.394599468 -0.665019095
0.410916388 -0.885164261 -0.218247786
0.632158756 0.389249027 -0.669970572
0.616345286 0.412082613 -0.67104882
0.457200289 -0.851050973 -0.258225083
0.604239643 0.391329437 -0.694086313
0.548252523 0.460925192 -0.69783026
0.505865514 -0.830649078 -0.23264192
0.57840091 0.451742738 -0.679250181
0.509819448 0.498324811 -0.701253593
0.533392131 0.487888217 -0.690983355
0.559269965 -0.761391044 -0.32787326
0.557333946 -0.773416042 -0.302004337
0.467677385 0.562883556 -0.681498468
0.595799744 -0.649037719 -0.473046362
0.559534073 -0.719672561 -0.411087573
0.416409969 0.561711073 -0.71490097
0.408256978 0.595576763 -0.691819847
0.641373515 -0.549903452 -0.535019815
0.633194089 -0.601282001 -0.487365574
0.613578916 -0.622237802 -0.486149162
0.34944576 0.648538291 -0.67622906
0.356695235 0.596050739 -0.719369233
0.714291036 -0.471728534 -0.516972363
0.67848897 -0.444483519 -0.584882021
0.670164883 -0.452675879 -0.588186622
0.643758774 -0.545398474 -0.536763549
0.626695275 -0.546716094 -0.555296838
0.24831973 0.615350723 -0.748118222
0.713170528 -0.513286293 -0.477414757
0.693202496 -0.598843217 -0.401069969
0.721984923 -0.527036309 -0.448297292
0.701654077 -0.523247361 -0.48362574
0.679496646 -0.501496375 -0.535523653
0.0409779213 0.508691788 -0.859973013
0.531683326 -0.116682127 -0.838867188
0.678962052 -0.25191164 -0.689602077
0.651342809 -0.42339468 -0.629674137
0.648103476 -0.562394202 -0.513492644
0.685583591 -0.565579176 -0.458361596
0.41626218 -0.101753347 -0.903533101
0.642355204 -0.17939429 -0.745115638
0.629236102 -0.402178675 -0.665067077
0.637256861 -0.500804603 -0.585746109
0.650144994 0.502892077 -0.569570959
0.627553403 0.515831769 -0.583175957
0.621468961 0.548151553 -0.559737682
0.619270504 0.585711777 -0.52292043
0.638924062 0.576735795 -0.509069502
0.605464935 0.539564192 -0.585049331
0.619901836 0.523615122 -0.584421754
0.638427019 0.471806973 -0.608119309
0.609189987 0.443218708 -0.65760535
0.644587934 0.4072119 -0.647058606
0.632128298 0.393041283 -0.667781651
0.580152273 0.464082599 -0.669365883
0.424451947 -0.853132427 -0.303324491
0.412656158 -0.865668654 -0.283430159
0.585927844 0.449003726 -0.674599349
0.53793788 0.483263403 -0.690709352
0.460356623 -0.830732465 -0.312977999
0.525875807 0.536578 -0.659953594
0.481880128 -0.82532835 -0.294320703
0.452107906 0.571609616 -0.684734166
0.518927038 -0.782099187 -0.345015347
0.412394464 0.568897843 -0.711537838
0.384931296 0.590176046 -0.709591508
0.66967535 0.663651705 -0.33331874
0.627294481 -0.642918825 -0.439496338
0.589913011 -0.729433656 -0.346307963
0.342995763 0.632735014 -0.694262385
0.32954073 0.57542783 -0.748522341
0.644618094 -0.566377521 -0.513501704
0.614577711 -0.617037356 -0.49148652
0.625671685 -0.620189607 -0.473180413
0.320492208 0.621820509 -0.714579642
0.44099766 -0.872923195 -0.208629295
0.750648856 -0.324534476 -0.575502932
0.664955795 -0.394696683 -0.63407284
0.63633734 -0.47407037 -0.608549118
0.612346113 -0.577820778 -0.539588094
0.637170076 -0.565170169 -0.524020016
0.268944174 0.730510354 -0.627713025
0.20361039 0.742753685 -0.637855649
0.602449715 -0.714684784 -0.355358839
0.714680135 -0.567470074 -0.408913046
0.732652903 -0.439860672 -0.519367099
0.637730896 -0.508204162 -0.578815877
0.609067261 -0.476212502 -0.63423872
0.627795041 -0.54730922 -0.553467274
0.0924702361 -0.7492553 0.655793846
0.814271152 -0.406098574 -0.414784849
0.706749558 -0.568106771 -0.421615541
0.205056682 -0.715747476 0.667575657
0.257992923 -0.655010402 0.710211873
0.686695695 -0.430127054 -0.586037338
0.622923374 -0.616582334 -0.481448442
0.608082771 0.580759585 -0.541251898
0.582955599 0.525989056 -0.61927247
0.657233477 0.557046831 -0.507684052
0.616216779 0.556895792 -0.556905687
0.628409684 0.562320948 -0.537490904
0.681120694 0.514254272 -0.521169126
0.655152261 0.499447048 -0.566858053
0.659996927 0.466998845 -0.588486373
0.670205891 0.440309972 -0.597453952
0.660071492 0.465753555 -0.589388847
0.626044035 0.437851697 -0.645255566
0.608009696 0.477054566 -0.634620488
0.576692939 0.488063693 -0.655148268
0.558785319 0.509331286 -0.654477417
0.469413012 -0.824050128 -0.317163765
0.543408334 0.490444899 -0.681301117
0.521257639 0.56426841 -0.640227854
0.476231962 -0.821784854 -0.312846363
0.476190507 0.571007669 -0.668724775
0.469905138 0.585432589 -0.660649538
0.381189197 0.736253917 -0.559128761
0.528898656 -0.781322598 -0.331362605
0.417529076 0.663237274 -0.621116519
0.541187346 0.705559731 -0.457495183
0.58715415 -0.691497862 -0.420809478
0.553706348 -0.758962035 -0.342616409
0.287437499 0.672207117 -0.682288289
0.683534026 -0.549439847 -0.480517566
0.668774188 -0.590267539 -0.452023715
0.60249871 -0.641343057 -0.475051999
0.281807482 0.663010895 -0.693542421
0.897250533 0.242033362 -0.369271398
0.891185701 -0.0121610183 -0.453475684
0.717854023 -0.477940977 -0.506219387
0.663842142 -0.575168014 -0.478011876
0.677907944 -0.550736547 -0.486959964
0.178140461 0.709704101 -0.681605518
0.123514749 0.769364893 -0.62675488
0.92126447 -0.0923235714 -0.377820313
0.817501843 -0.248779833 -0.519421995
0.709219933 -0.389449418 -0.58765316
0.665928662 -0.493021458 -0.559882939
0.0545936413 0.842478335 -0.535956979
-0.0456131995 0.866882086 -0.496421993
0.7200104 -0.52006042 -0.459480405
0.716906607 -0.443708837 -0.537742853
0.638703287 -0.489142269 -0.593967855
0.159877896 0.961866975 0.221925452
0.264365882 -0.863500714 -0.42950815
0.306412995 -0.799300373 0.516942918
0.0530838668 0.982816935 0.176785275
0.34705621 -0.499258757 0.793909729
0.361478865 -0.428202868 0.828236282
0.68081063 0.580863118 -0.44620052
0.655003428 0.538379133 -0.530206084
0.703646362 0.511043549 -0.493676275
0.668885171 0.50654304 -0.544064999
0.71050334 0.490320861 -0.504747748
0.681844175 0.510630846 -0.523779273
0.718164682 0.441506058 -0.537877083
0.687884212 0.465391845 -0.55697912
0.664531767 0.466134638 -0.584051371
0.644003332 0.483698398 -0.592701852
0.624364197 0.504989505 -0.595948815
0.606231689 0.497487724 -0.620474994
0.591020286 0.513349235 -0.622227967
0.564514279 0.566164911 -0.60065043
0.559029818 -0.809080839 -0.181311697
0.4979752 0.606498957 -0.619822264
0.508419156 0.599896312 -0.617765605
0.595164597 -0.744024754 -0.303654701
0.411976367 0.674984455 -0.612103999
0.631737828 -0.677061975 -0.377484173
0.599141359 -0.737988472 -0.310487777
0.320512146 0.749282777 -0.579523206
0.26908195 0.732150674 -0.625739872
0.668000221 0.569800138 -0.47864756
0.699655175 -0.510421753 -0.499952137
0.700938761 -0.564559221 -0.435841411
0.701813936 -0.563416302 -0.435912251
0.170800969 0.731285453 -0.660339773
0.859318614 0.228150994 -0.457731903
0.85388881 -0.192992717 -0.483350456
0.756660044 -0.45943588 -0.465171099
0.709265411 -0.543360174 -0.449112743
0.678354144 -0.552504361 -0.484328955
0.058623407 0.722241223 -0.68915242
0.109308407 0.781892657 -0.613755345
0.819313347 0.368061841 -0.439609021
0.876749039 0.0419838168 -0.479112238
0.776885927 -0.337748528 -0.531388879
0.718947053 -0.485359341 -0.497535259
0.0235228855 0.789863765 -0.612831056
0.0466322005 0.885985434 -0.461362332
0.811941683 -0.323817611 -0.485688031
0.749295652 -0.36795193 -0.55060631
0.267070144 -0.889310062 0.371215791
0.312173128 -0.899348557 0.306137651
0.307886899 -0.826566517 0.471161872
0.373045921 -0.596547127 0.710611224
0.592011213 -0.141460553 0.793417752
0.719721913 0.484944075 -0.496819496
0.696975887 0.488870621 -0.524623811
0.737592876 0.480219781 -0.474705964
0.687326789 0.477873266 -0.54700911
0.68846637 0.483010709 -0.541031122
0.682834327 0.492033482 -0.540037215
0.654286742 0.496110082 -0.570774615
0.678190291 0.487859696 -0.549591541
0.632202208 0.492252707 -0.598337471
0.597016871 0.559323728 -0.575089455
0.704298854 -0.687548816 -0.17674768
0.549955487 0.649922669 -0.524546981
0.559401035 0.639195263 -0.527730823
0.705790818 -0.659962773 -0.257504076
0.668701231 -0.711382091 -0.216273457
0.462087274 0.698580861 -0.546315074
0.717456162 -0.582318068 -0.382311881
0.698640645 -0.650692463 -0.297490478
0.333000749 0.788191795 -0.517555952
0.241587192 0.855492234 -0.45800519
0.696511567 -0.542115927 -0.4700872
0.693684995 -0.562023342 -0.450478554
0.702609122 -0.568876803 -0.427457184
0.0636255071 0.834030688 -0.548037112
0.598838925 0.413873345 -0.685639024
0.679406524 0.0691691637 -0.730494738
0.753292441 -0.318699598 -0.575309634
0.764562905 -0.435152233 -0.475485086
0.705004513 -0.527091801 -0.474492192
0.0352840163 -0.789656103 0.612534344
0.821838021 -0.287927061 -0.491609901
0.745609164 -0.464980721 -0.477346838
0.112615153 -0.766223013 0.632629633
0.0503684022 -0.789505243 0.611673415
0.231932521 -0.951453447 0.202345222
0.337432146 -0.891701221 0.301676065
0.218823671 0.810830116 0.542835712
0.315115541 -0.769600749 0.555352986
0.527453125 -0.229171172 0.818091452
0.449042588 0.290627807 0.844923854
0.693553388 0.517898977 -0.500763834
0.699418187 0.419305086 -0.578789711
0.717392862 0.520277977 -0.463312358
0.713921905 0.46176964 -0.526388049
0.719572544 0.465419114 -0.515364289
0.715453804 0.477261692 -0.510242283
0.700338662 0.460984111 -0.544994831
0.671753466 0.555305123 -0.490289181
0.721516728 0.547183394 -0.424268693
0.599112391 0.643186569 -0.476838946
0.618356407 0.635765016 -0.461993724
0.712385476 -0.64876163 -0.26761061
0.701619208 -0.665685892 -0.254151076
0.487609804 0.727911353 -0.482059985
0.703767717 -0.602772474 -0.376000583
0.701023281 -0.64324975 -0.307889849
0.693692863 -0.673682332 -0.254837632
0.352745712 0.818349421 -0.453734189
0.708323419 -0.545941234 -0.447466463
0.719419539 -0.584622741 -0.375035673
0.694769442 -0.614980161 -0.372954339
0.1745103 0.901321411 -0.39644146
0.0811032429 0.945529044 -0.315273017
0.628086984 -0.300497562 -0.717779875
0.724970698 -0.428960443 -0.538897514
0.728231966 -0.48100543 -0.488172144
0.696626961 -0.542212546 -0.469804734
0.025949385 -0.939607203 0.341269583
0.0534832701 -0.915928304 0.397762328
0.701943576 -0.367682308 -0.609987617
0.132209018 -0.901446462 0.412207395
0.153355032 -0.831720233 0.533595026
0.281517655 -0.820649266 0.497275144
0.379054904 -0.799722016 0.465577126
0.294700801 -0.837486923 0.460181534
0.272794336 -0.942823648 0.191485852
0.34005022 -0.873006046 0.34960857
0.384561658 -0.626305878 0.678124785
0.498331189 -0.2790595 0.820848227
0.736714482 0.447709501 -0.506762207
0.776985466 0.483376235 -0.403287679
0.699940681 0.470543206 -0.537282109
0.684542954 0.491914392 -0.537978709
0.664191484 0.55015552 -0.506140888
0.680246353 0.56282568 -0.469565898
0.641079783 0.647113621 -0.412626654
0.611843348 0.677763164 -0.407780379
0.537603617 0.758327901 -0.368674815
0.740112185 -0.593305647 -0.316579133
0.704792202 -0.652278662 -0.278927326
0.392701626 0.854199946 -0.34077552
0.270457774 0.929233193 -0.25175038
0.707200646 -0.540175557 -0.456155151
0.731316864 -0.581533015 -0.356363684
0.721945584 -0.609003007 -0.328496397
0.200797886 0.928993344 -0.31088835
0.100018382 0.969348311 -0.224410668
0.689866722 -0.521614969 -0.501997709
0.737970054 -0.491219014 -0.462713867
0.704859674 -0.526398718 -0.475475788
0.70458883 -0.542324543 -0.457644492
0.00302512967 0.978033841 -0.208424151
0.395031661 -0.840685785 -0.37040168
0.520392835 -0.671938479 -0.526962996
0.114080384 -0.958065867 0.26286009
0.228900209 -0.926186979 0.299637049
0.242773458 -0.91533649 0.321279019
0.334375322 -0.917719603 0.214438483
0.28913784 -0.819669127 0.494511724
0.352339536 -0.551696181 0.755968273
0.362079561 0.569929123 0.737617195
0.412512094 -0.225639358 0.882564783
0.451385081 0.0720147341 0.889418542
0.425181121 0.291885972 0.85675174
0.72212863 0.572262943 -0.388645589
0.662842751 0.565702736 -0.490530193
0.612291336 0.691599309 -0.383131444
0.623523295 0.725491107 -0.291343868
0.51595962 0.793884695 -0.321765065
0.417171121 0.867685318 -0.270352304
0.389904648 0.882633865 -0.262548625
0.261779934 0.941931725 -0.210323319
0.724051297 -0.523372948 -0.449255556
0.738389909 -0.587161243 -0.331695616
0.239934757 0.947911143 -0.209513381
0.128213242 0.982339025 -0.136276856
0.618031919 -0.635020077 -0.463450283
0.703845263 -0.544901073 -0.455724299
0.734448195 -0.521516979 -0.434287876
0.00928780343 -0.996753097 0.079980731
0.42156601 -0.875339746 -0.236775145
0.536601126 -0.746763766 -0.392941624
0.122839116 -0.988583207 0.087257266
0.196661144 -0.972646654 0.123623624
0.208778217 -0.95103842 0.227897972
0.39413631 -0.842824697 0.366473943
0.395338953 -0.860137999 0.322288245
0.322988719 -0.902869165 0.283735305
0.413223207 -0.888594627 0.199113294
0.324660152 -0.834337115 0.445507914
0.216567367 -0.745397389 0.630461156
0.239196271 -0.463441342 0.853233397
0.311953336 -0.190253317 0.930853844
0.586055398 0.730054855 -0.351509422
0.557676077 0.760521114 -0.332573324
0.514415145 0.836684227 -0.18798016
0.454491943 0.876434505 -0.159058258
0.385769695 0.900941014 -0.198713169
0.321238577 0.945700526 -0.0495613888
0.690408826 -0.543396115 -0.477552384
0.122631736 0.990258038 -0.0659588426
0.11394231 0.99026531 -0.0799486265
0.576553404 -0.725298345 -0.376202852
0.667717993 -0.629440129 -0.397439152
0.0926051363 -0.995612323 0.01342957
0.357878685 -0.903537035 -0.235677034
0.15740642 -0.987507701 0.00719711278
0.170709804 -0.984043956 0.0501561016
0.0676509067 0.990244806 -0.121814065
-0.00688649202 0.998071074 0.0617001802
0.271150976 -0.900347054 0.340370893
0.311939389 -0.837728202 0.448224574
0.195052132 -0.780756533 0.593610883
nan nan nan
0.22579734 -0.657757342 0.718589544
0.185980693 -0.424554497 0.886095166
0.23061201 0.759531736 0.608218431
0.24200432 -0.0124004073 0.970195949
0.27166605 0.224190339 0.935914636
0.249429077 0.460820943 0.851721346
0.4470447 0.884928942 0.130582556
0.408288777 0.898122072 -0.16333127
0.318850905 0.941779435 0.10670352
0.218084171 0.970889688 0.099057734
0.452132732 -0.846263349 -0.281805664
0.381132483 -0.869860351 -0.313178927
0.620488048 -0.720004737 -0.310785651
0.0196357556 -0.995733917 -0.0901579261
0.410178304 -0.901427507 -0.138499811
0.390308559 -0.908836365 -0.147226587
0.122507051 -0.988967538 -0.0832778886
-0.13589707 0.990306735 0.0287159216
0.187814385 -0.982171953 -0.00800399669
0.187205225 -0.981778085 0.0326489434
0.268901169 -0.960695088 0.0689719096
0.201894537 0.979376197 -0.00779654365
0.291028768 -0.946771324 0.137572497
0.307367295 -0.933126509 0.186548501
0.306171387 -0.933434963 0.186970979
0.302414596 -0.905089557 0.298928797
0.283569574 -0.88583231 0.367273062
0.227215767 -0.766371608 0.600872397
0.159529269 -0.671986103 0.723177075
0.111497052 0.748914897 0.653218865
0.187127262 -0.11421603 0.975673199
0.254674733 0.312366009 0.915187538
0.201248184 0.522007287 0.82885921
0.382819653 0.806047261 0.451372445
0.289328665 0.90201807 0.320394099
0.295877069 0.836067319 0.462004602
0.118785881 0.959217489 0.256498992
0.159848705 0.957358539 0.24065128
0.40158388 -0.911368251 -0.0902134106
0.0137048494 -0.974559546 -0.22370939
0.323599875 -0.940523207 0.103436865
0.0640910491 -0.995871127 -0.0642896071
0.0950391814 -0.97910732 -0.179767862
-0.158443674 0.947336793 -0.278296053
0.150553212 -0.988272905 -0.0255038999
0.21358718 0.970865667 -0.108629242
0.214720502 -0.976609647 -0.011349218
0.210452437 0.97232157 -0.101490989
0.242187709 -0.96912384 0.0463059433
0.206422895 -0.831114531 0.516370237
0.155328631 -0.717515469 0.679002643
0.0894827768 -0.630618453 0.770917118
0.124448627 0.979516506 0.158303469
0.0903511196 -0.504499972 0.858671308
0.0887701735 0.864143729 0.495353878
0.116347939 -0.384200811 0.915889144
0.148943052 -0.12381763 0.981063247
0.209810957 0.835150182 0.508432448
0.255401999 0.604426503 0.754611433
-0.0499747433 -0.917569995 -0.394420922
0.122557037 0.885329485 0.448521525
-0.155705601 0.628608644 -0.761975646
0.25763467 -0.923710227 0.283520281
0.00301714917 -0.956370533 -0.292140901
0.20809266 -0.922199428 0.325953543
0.0940347537 -0.986426473 -0.134611562
0.151688501 -0.980727077 -0.123146072
-0.0351767763 0.927338302 -0.372566909
0.178113937 0.976746321 -0.119339965
0.169020295 0.980795324 -0.0973279178
0.146530747 -0.982873917 0.111747593
0.114203304 0.985958874 0.12183024
0.171297014 -0.971274972 0.16517356
0.189776435 -0.953069031 0.235890284
0.161064565 -0.934341371 0.31790629
0.140034303 -0.899741411 0.413347095
0.0971729979 -0.787343442 0.608808458
0.142709404 0.962561011 -0.23045662
0.104473196 -0.780716717 0.61608988
0.0807114691 0.990882993 0.107872359
0.0783646852 -0.633901596 0.769433379
0.121898927 -0.487307101 0.864680529
0.0951862782 -0.325910032 0.940596759
0.123353191 -0.13124463 0.983645618
0.205540374 0.618653357 0.758301556
0.170817435 0.21685423 0.961142898
0.20802249 0.726632357 0.654776335
0.189077809 0.507240951 0.840806842
-0.065347597 -0.378580034 -0.923258781
0.0186756179 -0.0834097937 -0.996340334
-0.00319832214 0.0821736529 -0.996612847
-0.0730429292 -0.865520477 -0.495518893
0.129131779 0.736731887 0.663740218
0.232579872 -0.554422379 0.799075961
-0.0277090371 -0.941372633 -0.336228818
0.208899662 -0.855844021 0.473172218
0.0333213396 -0.966404796 -0.254855931
0.0675066859 -0.982164085 -0.175489664
-0.0118029295 0.905015707 -0.42521444
0.118056983 0.961546421 -0.247974098
0.115778841 -0.992437303 0.0407856368
0.187463328 0.982270479 0.00149463967
0.0588324182 -0.991496563 0.116074376
0.347213954 0.93154335 0.108024582
0.142696902 0.962559521 -0.230470777
0.142678067 0.962573886 -0.230422243
0.142244995 0.962527871 -0.23088178
0.0744251758 -0.898347199 0.432935774
0.14252381 0.962726772 -0.229878768
0.078838855 -0.753709018 0.652462423
0.0318203233 0.999491572 0.00201682746
0.0716798902 -0.66060096 0.747307479
0.0845979303 -0.450328618 0.88884604
-0.009090201 0.93804723 0.346388221
0.0983418524 -0.28966102 0.952063739
0.220531866 0.652039051 0.725403845
0.14524357 0.117617242 0.982379973
0.19110927 0.168903351 0.966927588
0.172434434 0.654015303 0.736566603
0.17683132 0.469954222 0.864796937
0.218809187 0.311709285 0.924640417
0.217697337 0.0686749443 0.973597229
-0.140480042 0.0696557313 -0.987630188
0.110021591 0.823407352 0.556682646
0.15312919 0.684087634 0.713144839
-0.134278253 0.450980991 -0.882374942
0.232588083 -0.5687778 0.788919866
-0.0328489728 -0.91450882 -0.40323016
-0.070261389 -0.888069987 -0.454307139
0.24021849 -0.73740381 0.63129282
-0.000675434014 -0.960065722 -0.279773653
-0.134271204 0.825780332 -0.547775507
0.00366865192 -0.997118354 -0.075773336
0.0703770593 -0.997334659 -0.0192514341
0.0251289923 0.90885973 -0.416344196
0.083884716 -0.995365262 0.0470250137
0.266362995 0.963538051 -0.0254013706
0.0949544311 -0.991011977 0.0942283943
0.526145101 0.811671913 0.253692627
0.446529448 0.893815935 0.0412872583
0.881236434 0.36973384 0.294481158
0.14237535 0.962518334 -0.230841145
0.0323711224 -0.846759737 0.530989707
0.142581776 0.962689877 -0.229996815
0.0424567387 -0.753189564 0.656431913
0.103875726 0.994442344 0.0171545278
0.0794678032 -0.452001184 0.888470411
0.0950360671 -0.307175845 0.94689554
-0.0855432674 0.769573212 0.632802844
0.00362016936 0.0975395367 0.995225072
0.0505765676 0.301933885 0.951986313
0.235762432 0.391957164 0.889261305
0.278801948 0.257592916 0.925156951
0.243722945 0.0813751742 0.966424942
0.233919576 -0.113012217 0.96566546
0.187833846 0.77641803 0.601575792
0.214153752 0.629242301 0.747122645
0.26037997 0.493440121 0.829891026
0.237971872 -0.210832193 0.948113501
-0.197567284 0.483628452 -0.852684438
0.120069429 0.879497111 0.460508525
0.145553663 0.79596597 0.587581754
-0.186624303 0.633576035 -0.750834763
0.0600690544 0.950979173 0.303365052
-0.0949660987 0.79317528 -0.601543427
-0.0369050577 -0.994057059 -0.102413222
0.0797451511 -0.991678715 -0.101064391
-0.0211494695 0.882978678 -0.468936473
0.0939479992 -0.994362354 0.0491659679
0.381553769 0.9222188 -0.0626838133
0.558348835 0.82779938 -0.0547249876
0.343022853 0.937395692 -0.0602051057
-0.00543248095 -0.841637015 0.540016174
-0.0141682411 -0.841441453 0.540162444
0.142206371 0.962936521 -0.229195356
0.0148785021 -0.754753351 0.65583992
0.0191327315 -0.670291722 0.741851151
0.0659945533 -0.576542377 0.814397752
-0.019452231 -0.350372493 0.936408401
-0.168819427 0.106250204 0.97990346
0.26402542 0.217210308 0.939739466
0.236988589 0.726253331 0.645284832
0.238479972 0.586137533 0.774319112
0.312892973 0.427816451 0.847980559
0.348787546 0.140241235 0.92664969
0.380370378 -0.00910298619 0.924789488
0.358726233 -0.246083453 0.900421262
0.291326791 -0.461424857 0.837983191
0.184386 0.856782973 0.481585592
0.18051222 0.733560801 0.65521282
0.263978273 -0.545328081 0.795570672
0.143070891 0.923781395 0.355188072
-0.18764478 0.72906214 -0.658223271
0.0763129964 0.978344858 0.192399904
-0.00604287768 -0.98538357 -0.170243427
0.103266545 -0.99192512 0.0736240074
-0.118800469 0.960298419 -0.252415091
0.0862614661 -0.981049895 0.173493654
0.142574653 0.962577999 -0.230469257
0.0553255454 0.843969285 -0.533530593
0.109706223 0.809450388 -0.576848984
-0.0262548197 0.999549747 0.0145284301
0.103474982 0.693511903 -0.712975502
-0.106290855 -0.515687346 0.850158155
-0.139815271 -0.285580099 0.948101103
-0.222527966 0.633538365 0.741019905
0.230484992 -0.10597346 -0.967288136
0.272179723 0.477377772 0.835481107
0.353288174 0.317107409 0.880130947
0.378028214 0.0890310481 0.921503186
0.384083718 -0.0833007917 0.919532835
0.414615422 -0.245609641 0.876224875
0.219258413 0.717488825 0.661162257
0.412262291 -0.319036365 0.853378892
0.340419978 -0.483473569 0.806453764
0.169989571 0.871358633 0.460258305
0.387884885 -0.568219125 0.725721955
0.31500715 -0.638093114 0.702572107
0.0874580145 0.95305258 0.289899737
0.235502645 -0.780855358 0.578621924
0.0163255129 -0.999544978 -0.0253668055
0.00335777923 -0.995366633 0.0960939676
0.142783001 0.96254158 -0.230492219
0.142742664 0.962599456 -0.230275437
0.115925908 0.864536583 -0.489017069
0.188681409 0.815080225 -0.547762334
-0.160335988 0.985034108 0.0632476211
0.150146917 0.800093651 -0.580780625
0.204464242 0.66218406 -0.720906794
-0.151786357 0.957195401 0.246450603
0.279868484 0.43438223 -0.856145859
-0.205056265 0.858653784 0.469750494
0.31653598 0.22456798 -0.921615005
0.365812957 -0.0131297112 -0.930595756
0.358520836 -0.552346587 -0.75257957
0.275029451 0.365942448 0.889069676
0.330479443 0.248942703 0.910390496
0.373460799 0.0177585334 0.927475929
0.275805056 0.669671178 0.689544857
0.321445227 0.498320848 0.805201352
0.379978567 -0.0153047647 0.924868643
0.410626531 -0.238214269 0.880136251
0.46788317 -0.356474906 0.808709443
0.177824467 0.769702673 0.61313647
0.446810275 -0.541315198 0.712276936
0.108111165 0.93881768 0.327006549
0.450708061 -0.591564894 0.668515623
0.405375481 -0.67083025 0.621013284
0.376242816 -0.753389359 0.539301097
0.105577953 0.99275732 0.0573258325
0.282260001 -0.860434294 0.424242944
0.142662108 0.962592006 -0.230356619
0.322595537 -0.875736952 0.359189272
0.142592832 0.962562382 -0.230523199
0.214732885 0.907929242 -0.359936506
0.230196178 0.841565728 -0.488647938
0.304354817 -0.952556014 0.00230388879
0.301497877 0.755288184 -0.581926823
0.299237669 0.798904061 -0.521736741
0.391574919 0.665823936 -0.63509655
0.2587547 -0.956797123 -0.132609949
0.350419164 0.552021027 -0.756623566
0.375153929 0.380926281 -0.84507674
0.409038991 -0.0956855118 -0.90748632
0.397787124 -0.384810418 -0.832878351
0.403505892 -0.569481254 -0.71615231
0.289101332 0.601026773 0.745108962
0.409093559 0.371852815 0.833287477
0.437313199 0.0938501582 0.894398868
0.440018952 -0.100945406 0.892296672
0.462788701 -0.31349647 0.829184294
0.186891586 0.765684128 0.615466714
0.456518292 -0.408617526 0.790330827
0.466311604 -0.447072357 0.763334632
0.188983455 0.898452997 0.396317422
0.478690088 -0.51530242 0.710858047
0.464661658 -0.596471548 0.654454947
0.451840878 -0.708182991 0.542509615
0.242875353 0.969161034 0.0416937955
0.445378423 -0.789983571 0.421383411
0.28624323 0.946962714 -0.14603515
0.354889095 -0.873962402 0.332029372
0.324320227 0.900915205 -0.288388968
0.322277576 -0.912545383 0.251789808
0.361167163 0.853194356 -0.376321346
0.293800265 -0.937765837 0.185139433
0.334349751 0.825737953 -0.454276472
0.4505198 0.736098588 -0.505163968
0.433604836 0.704960763 -0.561263859
0.356486678 -0.934243917 -0.0102741783
0.438152701 0.694097102 -0.571184218
0.325567842 -0.943579912 -0.06051879
0.522516966 0.545826018 -0.655019104
0.565835714 0.374159038 -0.734734654
0.432671875 -0.83079958 -0.350095779
0.556476355 0.0968873501 -0.825195074
0.580957234 -0.118351534 -0.805283666
0.546507597 -0.392862737 -0.739586592
0.517402887 -0.602309704 -0.607879281
0.457327127 0.273335874 0.846250176
0.506839395 0.0339816511 0.861370385
0.491068155 -0.202369407 0.847289026
0.330822051 0.709643364 0.622063637
0.387098968 0.500780463 0.774192095
0.468165159 -0.277372092 0.838979244
0.466792881 -0.396501392 0.790500522
