# .PCD v0.7 - Point Cloud Data file format
VERSION 0.7
FIELDS x y z
SIZE 4 4 4
TYPE F F F
COUNT 1 1 1
WIDTH 1422
HEIGHT 1
VIEWPOINT 0 0 0 1 0 0 0
POINTS 1422
DATA ascii
0.67199999 0.089999996 0.044000015
0.67400002 0.090000004 0.044000015
0.676 0.090000004 0.044000015
0.67799997 0.089999996 0.044000011
0.67999995 0.089999996 0.044000015
0.67200005 0.069999993 0.046000008
0.67400002 0.070000008 0.046000011
0.676 0.069999993 0.046000008
0.67800003 0.069999993 0.046000004
0.68000001 0.069999993 0.046000011
0.66400003 0.071999997 0.046000011
0.66600001 0.072000004 0.046000004
0.66799998 0.072000004 0.046000011
0.67000002 0.071999997 0.046000008
0.67200005 0.071999997 0.046000004
0.67400002 0.072000004 0.046000011
0.676 0.071999989 0.046000004
0.67800003 0.071999997 0.046000004
0.68000001 0.071999997 0.046000008
0.68200004 0.072000004 0.046000011
0.68400002 0.071999989 0.046000004
0.68599999 0.071999997 0.046000004
0.68800002 0.072000004 0.046000011
0.66400003 0.074000001 0.046000008
0.66600001 0.074000001 0.046000004
0.66799998 0.074000001 0.046000008
0.67000002 0.074000001 0.046000004
0.67200005 0.074000001 0.046000004
0.67400002 0.074000001 0.046000008
0.676 0.074000001 0.046000011
0.67800003 0.074000001 0.046000004
0.68000001 0.074000001 0.046000004
0.68200004 0.074000001 0.046000011
0.68400002 0.073999986 0.046
0.68599999 0.074000001 0.046000004
0.68800002 0.074000001 0.046000011
0.69000006 0.074000001 0.046000008
0.66200006 0.07600002 0.046000011
0.66400003 0.076000005 0.046000004
0.66600001 0.076000012 0.046000004
0.66799998 0.076000012 0.046000004
0.67000002 0.07600002 0.046000011
0.67200005 0.076000005 0.046000004
0.67400002 0.076000012 0.046000004
0.676 0.076000012 0.046000011
0.67799997 0.076000005 0.046
0.68000001 0.076000005 0.046000004
0.68200004 0.076000012 0.046000008
0.68400002 0.076000012 0.046000011
0.68599999 0.076000005 0.046000004
0.68800002 0.076000012 0.046000008
0.69000006 0.076000012 0.046000004
0.69200003 0.07600002 0.046000008
0.66200006 0.078000017 0.046000008
0.66400003 0.078000017 0.046000011
0.66600001 0.078000009 0.046000008
0.66799998 0.078000009 0.046000004
0.67000002 0.078000024 0.046000011
0.67200005 0.078000009 0.046000008
0.67400002 0.078000009 0.046000004
0.676 0.078000009 0.046000008
0.67800003 0.078000024 0.046000011
0.68000001 0.078000009 0.046
0.68200004 0.078000009 0.046000008
0.68400002 0.078000009 0.046000011
0.68599999 0.078000024 0.046000008
0.68800002 0.078000009 0.046000004
0.69000006 0.078000009 0.046000011
0.69200003 0.078000024 0.046000008
0.66200006 0.080000021 0.046000004
0.66400003 0.080000021 0.046000011
0.66600001 0.080000013 0.046000004
0.66799998 0.080000013 0.046000004
0.67000002 0.080000021 0.046000008
0.67200005 0.080000021 0.046000011
0.67400002 0.080000013 0.046000004
0.676 0.080000013 0.046000004
0.67800003 0.080000021 0.046000011
0.68000001 0.080000021 0.046000008
0.68200004 0.080000013 0.046000004
0.68400002 0.080000013 0.046000011
0.68599999 0.080000021 0.046000004
0.68800002 0.080000013 0.046000004
0.69000006 0.080000013 0.046000011
0.69200003 0.080000021 0.046000004
0.66400003 0.082000017 0.046000008
0.66600001 0.082000032 0.046000011
0.66799998 0.082000017 0.046
0.67000002 0.082000017 0.046000004
0.67200005 0.082000017 0.046000011
0.67400002 0.082000032 0.046000008
0.676 0.082000017 0.046000004
0.67800003 0.082000017 0.046000011
0.68000001 0.082000017 0.046000008
0.68200004 0.082000017 0.046000004
0.68400002 0.082000017 0.046000008
0.68599999 0.082000017 0.046000011
0.68800002 0.082000025 0.046000011
0.69000006 0.08200001 0.046000008
0.69200003 0.082000017 0.046000004
0.66600001 0.083999999 0.046000011
0.66799998 0.083999984 0.046
0.67000002 0.083999991 0.046000004
0.67200005 0.083999991 0.046000011
0.67400002 0.083999999 0.046000008
0.676 0.083999984 0.046000004
0.67800003 0.083999991 0.046000011
0.68000001 0.083999991 0.046000008
0.68200004 0.083999984 0.046000004
0.68400002 0.083999984 0.046000008
0.68599999 0.083999991 0.046000011
0.67200005 0.085999995 0.046000011
0.67400002 0.08600001 0.046000004
0.67599994 0.085999995 0.046000004
0.67800003 0.085999995 0.046000008
0.65799999 0.088 0.028000018
0.65400004 0.090000011 0.028000023
0.65600008 0.090000018 0.028000027
0.65799999 0.090000004 0.028000016
0.65599996 0.087999992 0.029999992
0.65199995 0.093999997 0.029999994
0.64599997 0.096000008 0.029999996
0.64799994 0.096000008 0.029999997
0.64999998 0.096000016 0.030000001
0.64799994 0.098000012 0.029999996
0.64999998 0.092000015 0.032000013
0.65200001 0.092 0.032000005
0.65400004 0.092000008 0.032000009
0.65600002 0.092000015 0.032000013
0.648 0.096000016 0.032000005
0.64999998 0.096000023 0.032000009
0.64600003 0.098000027 0.032000005
0.65400004 0.092000008 0.034000017
0.65600002 0.092000015 0.03400002
0.65799999 0.092 0.034000009
0.64600003 0.094000004 0.034000009
0.648 0.094000012 0.034000017
0.65200001 0.094000004 0.034000009
0.64400011 0.082000032 0.036000021
0.64400011 0.083999999 0.036000021
0.64200002 0.085999995 0.036000021
0.64400011 0.08600001 0.036000021
0.64200002 0.088 0.036000017
0.64000005 0.090000018 0.036000021
0.65200001 0.092000008 0.036000013
0.65400004 0.092000015 0.036000021
0.65600008 0.092000015 0.036000025
0.65799999 0.092000008 0.036000013
0.64400011 0.094000027 0.036000028
0.65200001 0.094000012 0.036000013
0.64999998 0.096000031 0.036000021
0.63999999 0.092000008 0.038000003
0.64200002 0.092000008 0.038000006
0.65200001 0.092 0.037999999
0.65400004 0.092000008 0.038000003
0.65600002 0.092000008 0.03800001
0.64200002 0.094000012 0.038000006
0.64999998 0.094000012 0.038000006
0.64799994 0.098000012 0.037999999
0.65600002 0.066000022 0.040000014
0.648 0.073999994 0.040000007
0.648 0.07600002 0.04000001
0.64200002 0.089999996 0.04000001
0.65200001 0.090000004 0.040000007
0.65400004 0.090000004 0.040000014
0.65600002 0.090000011 0.040000018
0.65799999 0.089999996 0.040000007
0.63999999 0.092000008 0.040000007
0.64999998 0.092000015 0.040000018
0.65200001 0.092000008 0.040000007
0.648 0.094000012 0.04000001
0.64999998 0.094000012 0.040000014
0.64200002 0.096000023 0.04000001
0.648 0.096000016 0.04000001
0.64600003 0.098000027 0.04000001
0.65600008 0.064000025 0.042000018
0.66200006 0.066000029 0.042000018
0.66400009 0.066000029 0.042000014
0.66000003 0.068000019 0.042000011
0.66200006 0.068000033 0.042000014
0.66400009 0.068000033 0.042000018
0.65800005 0.07 0.042000018
0.66000003 0.069999993 0.042000011
0.66200006 0.07 0.042000014
0.65799999 0.071999997 0.042000018
0.66000009 0.072000012 0.042000018
0.648 0.074000001 0.042000011
0.65799999 0.074000001 0.042000018
0.64600003 0.07600002 0.042000018
0.64800006 0.07600002 0.042000014
0.648 0.080000028 0.042000018
0.64400011 0.084000006 0.042000018
0.65799999 0.086000003 0.042000014
0.64200002 0.088 0.042000014
0.65200001 0.088000014 0.042000014
0.6540001 0.088000014 0.042000018
0.65600002 0.088 0.042000011
0.65799999 0.088 0.042000011
0.64999998 0.090000004 0.042000014
0.65200001 0.090000011 0.042000011
0.6540001 0.090000011 0.042000018
0.65600008 0.090000018 0.042000022
0.64200008 0.092000015 0.042000018
0.648 0.092000015 0.042000018
0.65000004 0.092000015 0.042000022
0.63999999 0.094000012 0.042000011
0.64600003 0.094000012 0.042000011
0.648 0.094000012 0.042000014
0.64600003 0.096000016 0.042000011
0.64200002 0.098000027 0.042000011
0.64400005 0.098000035 0.042000018
0.64600009 0.098000035 0.042000014
0.65600002 0.066000015 0.044000018
0.65999997 0.066000015 0.044000011
0.66200006 0.066000015 0.044000018
0.66400003 0.066000015 0.044000015
0.65600002 0.068000019 0.044000015
0.65799999 0.068000019 0.044000018
0.65999997 0.068000011 0.044000011
0.66200006 0.068000019 0.044000015
0.65799999 0.069999993 0.044000018
0.65999997 0.069999985 0.044000011
0.66200006 0.069999993 0.044000015
0.65799999 0.071999989 0.044000018
0.66000003 0.071999997 0.044000015
0.662 0.071999989 0.044000015
0.65799999 0.073999994 0.044000015
0.66000003 0.074000001 0.044000015
0.66200006 0.074000001 0.044000018
0.65799993 0.076000005 0.044000015
0.66000003 0.076000005 0.044000011
0.65799993 0.078000002 0.044000011
0.66000003 0.078000009 0.044000015
0.65799999 0.080000013 0.044000018
0.65999997 0.080000006 0.044000015
0.64400005 0.082000017 0.044000015
0.65799999 0.082000017 0.044000015
0.65999997 0.08200001 0.044000015
0.65600002 0.083999991 0.044000011
0.65799999 0.083999991 0.044000015
0.65200001 0.085999995 0.044000015
0.65400004 0.085999995 0.044000022
0.65600002 0.085999995 0.044000007
0.65799999 0.085999995 0.044000015
0.64999992 0.088 0.044000015
0.65200001 0.088 0.044000015
0.65400004 0.088 0.044000018
0.65599996 0.088 0.044000007
0.648 0.090000004 0.044000018
0.64999992 0.089999996 0.044000015
0.64600003 0.092 0.044000011
0.648 0.092000008 0.044000015
0.64599997 0.094000004 0.044000011
0.63999993 0.098000012 0.044000015
0.64400005 0.098000027 0.044000018
0.65600002 0.066000029 0.046000011
0.65799999 0.066000029 0.046000015
0.65799999 0.068000026 0.046000011
0.65600002 0.071999997 0.046000008
0.65400004 0.074000001 0.046000008
0.65600002 0.074000001 0.046000004
0.65799999 0.074000001 0.046000008
0.65600002 0.07600002 0.046000011
0.65799999 0.076000005 0.046000008
0.66000003 0.076000012 0.046000004
0.65600002 0.078000024 0.046000008
0.65799999 0.078000009 0.046000004
0.64400005 0.080000028 0.046000011
0.65600002 0.080000021 0.046000008
0.65799999 0.080000021 0.046000011
0.66000003 0.080000013 0.046000008
0.64200002 0.082000017 0.046000011
0.65600002 0.082000017 0.046000004
0.65799999 0.082000017 0.046000011
0.65200001 0.083999999 0.046000011
0.65400004 0.083999984 0.046000008
0.65600002 0.083999991 0.046000004
0.648 0.085999995 0.046000004
0.64999998 0.085999995 0.046000004
0.65200001 0.08600001 0.046000008
0.65400004 0.08600001 0.046000011
0.64600003 0.088000007 0.046000008
0.648 0.088000014 0.046000011
0.64999998 0.088 0.046000008
0.63999999 0.090000004 0.046000008
0.64600003 0.090000004 0.046000008
0.64400005 0.092 0.046
0.64600003 0.092000008 0.046000004
0.64400005 0.094000019 0.046000015
0.64400005 0.096000023 0.046000011
0.63999999 0.098000012 0.046000008
0.65600002 0.066000029 0.048000015
0.65600002 0.068000033 0.048000012
0.65600002 0.07 0.048000012
0.65600002 0.071999997 0.048000008
0.65600002 0.074000001 0.048000008
0.65600008 0.07600002 0.048000015
0.65600008 0.078000024 0.048000012
0.65400004 0.080000013 0.048000015
0.65600002 0.080000028 0.048000012
0.65200007 0.082000032 0.048000015
0.65400004 0.082000017 0.048000012
0.64999998 0.083999991 0.048000008
0.65200007 0.084000006 0.048000015
0.64600009 0.08600001 0.048000015
0.648 0.086000003 0.048000008
0.64999998 0.086000003 0.048000008
0.64400005 0.088000014 0.048000008
0.64600003 0.088000014 0.048000012
0.64800006 0.088000014 0.048000015
0.64400005 0.090000004 0.048000008
0.64400005 0.092000008 0.048000004
0.64200002 0.094000019 0.048000012
0.64200002 0.096000016 0.048000012
0.64200002 0.098000027 0.048000008
0.65600002 0.066000022 0.049999997
0.65399998 0.068000019 0.049999993
0.65600002 0.068000019 0.049999997
0.65400004 0.078000009 0.049999993
0.65400004 0.080000013 0.049999997
0.64999998 0.082000017 0.049999993
0.65200001 0.082000025 0.049999997
0.64599997 0.083999977 0.049999993
0.64799994 0.083999991 0.049999997
0.64999998 0.083999991 0.049999993
0.63999993 0.085999988 0.04999999
0.64400005 0.086000003 0.049999993
0.64600003 0.086000003 0.049999997
0.64799994 0.085999995 0.049999993
0.64199996 0.088 0.049999997
0.64400005 0.088 0.049999993
0.64199996 0.089999996 0.049999993
0.64200002 0.092000008 0.050000001
0.64200002 0.096000008 0.049999997
0.64199996 0.09800002 0.049999993
0.65200001 0.080000006 0.052000001
0.648 0.082000017 0.052000005
0.64999998 0.082000017 0.052000001
0.64400005 0.083999991 0.052000005
0.64600003 0.083999977 0.052000001
0.648 0.083999984 0.052000005
0.63800001 0.085999995 0.052000005
0.64200002 0.085999995 0.052000005
0.64400005 0.085999995 0.052000001
0.63600004 0.088 0.052000005
0.64200002 0.087999992 0.052000001
0.63999999 0.090000011 0.052000005
0.63999999 0.092000008 0.052000001
0.63999999 0.094000012 0.052000001
0.63999999 0.096000016 0.051999997
0.63999993 0.09800002 0.052000001
0.65200001 0.074000001 0.054000013
0.56800008 0.07600002 0.054000009
0.65200001 0.076000012 0.054000013
0.56800002 0.078000017 0.054000005
0.65200001 0.078000009 0.054000009
0.64999998 0.080000021 0.054000013
0.64400005 0.082000025 0.054000013
0.64600003 0.082000017 0.054000009
0.648 0.082000017 0.054000013
0.64999998 0.082000017 0.054000009
0.64200002 0.083999991 0.054000016
0.64400005 0.083999999 0.054000013
0.63999999 0.085999995 0.054000005
0.64200002 0.085999995 0.054000013
0.64000005 0.088000014 0.054000013
0.63999999 0.090000011 0.054000013
0.63999999 0.096000023 0.054000005
0.63999999 0.09800002 0.054000009
0.57000005 0.066000029 0.056000017
0.65400004 0.066000022 0.056000013
0.57000005 0.068000026 0.056000017
0.57000005 0.07 0.056000017
0.65200007 0.070000008 0.05600002
0.56999999 0.071999997 0.056000013
0.56800008 0.074000008 0.056000017
0.56999999 0.074000001 0.056000013
0.65200007 0.074000008 0.056000017
0.6540001 0.074000008 0.056000017
0.56800008 0.07600002 0.056000013
0.56999999 0.076000005 0.056000009
0.56800008 0.078000024 0.056000013
0.57000005 0.078000024 0.056000017
0.65200001 0.078000017 0.056000013
0.56800008 0.080000013 0.056000017
0.64600003 0.080000013 0.056000013
0.648 0.080000028 0.056000017
0.65000004 0.080000028 0.056000017
0.64200008 0.082000025 0.056000017
0.64400011 0.082000032 0.056000017
0.64600003 0.082000017 0.056000013
0.648 0.082000025 0.056000017
0.63999999 0.083999991 0.056000013
0.64200002 0.083999991 0.056000017
0.63999999 0.085999995 0.056000009
0.63800007 0.088000014 0.056000013
0.63800001 0.090000011 0.056000009
0.63800001 0.092000015 0.056000017
0.63800001 0.094000012 0.056000013
0.63800007 0.096000031 0.05600002
0.63800007 0.098000035 0.056000017
0.57200003 0.058000002 0.058000013
0.57200003 0.060000002 0.058000013
0.57200003 0.062000003 0.058000013
0.57200003 0.064000003 0.05800001
0.56999999 0.066000015 0.058000017
0.57199997 0.066000015 0.058000006
0.65400004 0.066000015 0.058000013
0.56999999 0.068000019 0.058000017
0.57200003 0.068000026 0.058000013
0.65200001 0.068000033 0.058000021
0.56999999 0.069999993 0.058000017
0.57200003 0.069999993 0.058000013
0.56999999 0.071999989 0.058000013
0.57200003 0.071999997 0.058000021
0.65399998 0.071999982 0.05800001
0.56800002 0.074000001 0.058000017
0.56999999 0.073999986 0.058000013
0.57200003 0.074000001 0.058000017
0.65400004 0.074000001 0.058000017
0.56800002 0.076000005 0.058000013
0.56999993 0.076000005 0.05800001
0.57200003 0.076000005 0.058000013
0.65200001 0.076000005 0.058000013
0.56800002 0.078000009 0.058000013
0.56999999 0.078000009 0.058000017
0.57200003 0.078000009 0.058000013
0.65200001 0.078000009 0.058000013
0.56800002 0.080000006 0.058000017
0.56999999 0.080000013 0.058000013
0.64600003 0.080000013 0.058000013
0.648 0.080000013 0.058000017
0.64999998 0.080000013 0.058000013
0.56999999 0.082000017 0.058000013
0.64200002 0.082000017 0.058000017
0.64400005 0.082000025 0.058000013
0.64599997 0.08200001 0.058000013
0.648 0.082000017 0.058000017
0.63800001 0.083999991 0.058000017
0.63999999 0.083999977 0.058000013
0.63800001 0.086000003 0.058000013
0.63800001 0.088 0.058000013
0.63800001 0.090000004 0.05800001
0.63600004 0.092000015 0.058000021
0.63800001 0.092 0.058000017
0.63600004 0.094000012 0.058000017
0.63600004 0.096000023 0.058000017
0.63800001 0.096000023 0.058000021
0.63800001 0.098000027 0.058000017
0.574 0.048000015 0.060000025
0.57200003 0.056000002 0.060000021
0.574 0.055999994 0.060000017
0.57200003 0.05800001 0.060000021
0.57400006 0.05800001 0.060000025
0.57200003 0.06000001 0.060000017
0.574 0.06000001 0.060000025
0.57200003 0.06200001 0.060000017
0.574 0.06200001 0.060000021
0.57600009 0.062000018 0.060000025
0.57200003 0.06400001 0.060000017
0.574 0.064000018 0.060000017
0.57600003 0.06400001 0.060000025
0.57200003 0.066000015 0.060000014
0.574 0.066000015 0.060000017
0.65400004 0.066000015 0.060000021
0.57200003 0.068000033 0.060000017
0.574 0.068000019 0.060000017
0.57200003 0.070000008 0.060000017
0.574 0.069999993 0.060000014
0.57200003 0.072000004 0.060000025
0.57400006 0.072000004 0.060000021
0.65400004 0.071999989 0.060000017
0.56999999 0.074000001 0.060000017
0.57200003 0.074000001 0.060000025
0.574 0.074000001 0.060000021
0.56999999 0.076000005 0.060000017
0.57200003 0.076000012 0.060000021
0.574 0.07600002 0.060000017
0.65200001 0.076000012 0.060000021
0.56999999 0.078000024 0.060000021
0.57200003 0.078000009 0.060000017
0.574 0.078000017 0.060000017
0.64999998 0.078000024 0.060000025
0.56999999 0.080000021 0.060000021
0.57200009 0.080000028 0.060000025
0.574 0.080000021 0.060000021
0.648 0.080000021 0.060000025
0.64999998 0.080000021 0.060000021
0.56999999 0.082000017 0.060000017
0.57200003 0.082000025 0.060000025
0.63999999 0.082000017 0.060000017
0.64200002 0.082000017 0.060000025
0.64400005 0.082000032 0.060000021
0.64600003 0.082000017 0.060000017
0.63999999 0.083999984 0.060000017
0.63800001 0.08600001 0.060000017
0.63800001 0.088000007 0.060000017
0.63600004 0.090000004 0.060000017
0.6360001 0.092000015 0.060000025
0.63600004 0.094000019 0.060000025
0.634 0.096000023 0.060000017
0.63600004 0.096000031 0.060000021
0.63600004 0.09800002 0.060000017
0.57400006 0.046000019 0.062000025
0.574 0.048000019 0.062000033
0.57600009 0.048000026 0.062000029
0.574 0.050000019 0.062000029
0.57600009 0.050000027 0.062000029
0.574 0.05200002 0.062000029
0.57600009 0.052000027 0.062000029
0.57200003 0.05399999 0.062000025
0.574 0.053999998 0.062000029
0.57600009 0.053999998 0.062000025
0.57200009 0.056000009 0.062000029
0.574 0.056000002 0.062000025
0.57600003 0.055999998 0.062000025
0.57200009 0.058000013 0.062000029
0.57400006 0.058000013 0.062000033
0.57600003 0.058000006 0.062000021
0.57400006 0.060000014 0.062000029
0.57600003 0.060000006 0.062000021
0.57800001 0.060000006 0.062000025
0.57400006 0.062000014 0.062000029
0.57600009 0.062000021 0.062000033
0.57800001 0.062000006 0.062000021
0.574 0.064000025 0.062000025
0.57600009 0.064000025 0.062000033
0.57800001 0.06400001 0.062000021
0.574 0.066000022 0.062000025
0.57600003 0.066000029 0.062000029
0.57800007 0.066000029 0.062000025
0.65400004 0.066000029 0.062000025
0.574 0.068000019 0.062000021
0.57600003 0.068000033 0.062000029
0.57800007 0.068000033 0.062000033
0.65400004 0.068000026 0.062000025
0.574 0.069999993 0.062000021
0.57600003 0.07 0.062000029
0.57800007 0.07 0.062000033
0.65400004 0.069999993 0.062000025
0.57400006 0.072000012 0.062000029
0.57600003 0.071999997 0.062000025
0.57800001 0.071999997 0.062000029
0.57400006 0.074000008 0.062000029
0.57600003 0.074000001 0.062000025
0.65200001 0.074000016 0.062000029
0.574 0.07600002 0.062000025
0.57600009 0.07600002 0.062000029
0.57200003 0.078000009 0.062000025
0.574 0.078000017 0.062000021
0.57600009 0.078000024 0.062000029
0.65000004 0.078000024 0.062000029
0.57200009 0.080000028 0.062000033
0.574 0.080000013 0.062000029
0.57600003 0.080000021 0.062000029
0.64600003 0.080000021 0.062000025
0.648 0.080000028 0.062000029
0.57200009 0.082000025 0.062000033
0.574 0.082000017 0.062000025
0.57600003 0.082000025 0.062000025
0.63999999 0.082000017 0.062000025
0.64200002 0.082000025 0.062000029
0.64400011 0.082000032 0.062000029
0.63800007 0.084000006 0.062000029
0.63999999 0.083999991 0.062000025
0.63800007 0.08600001 0.062000029
0.63600004 0.088000007 0.062000029
0.63600004 0.090000004 0.062000025
0.63400006 0.092000015 0.062000029
0.634 0.094000012 0.062000025
0.634 0.096000023 0.062000025
0.57600003 0.048000015 0.063999996
0.57800001 0.048000004 0.063999996
0.57600003 0.050000019 0.063999996
0.57799995 0.050000004 0.063999996
0.574 0.052000009 0.063999996
0.57600003 0.052000016 0.063999996
0.57800001 0.052000016 0.063999996
0.574 0.05399999 0.063999996
0.57600003 0.05399999 0.063999996
0.57800001 0.053999998 0.063999996
0.57600003 0.055999987 0.063999996
0.57800001 0.055999998 0.063999996
0.57600003 0.057999998 0.063999988
0.57800001 0.057999998 0.063999996
0.57599998 0.059999999 0.063999988
0.57800001 0.059999999 0.063999996
0.57600003 0.06200001 0.064000003
0.57799995 0.061999999 0.063999988
0.58000004 0.062000006 0.063999996
0.57600003 0.06400001 0.064000003
0.57799995 0.06400001 0.063999988
0.58000004 0.06400001 0.063999996
0.57600003 0.066000015 0.063999996
0.57800001 0.066000015 0.063999996
0.57999998 0.066000015 0.063999996
0.57600003 0.068000019 0.063999996
0.57800001 0.068000019 0.064000003
0.58000004 0.068000026 0.063999996
0.57600003 0.069999993 0.063999996
0.57800001 0.069999993 0.064000003
0.58000004 0.07 0.063999996
0.65200001 0.07 0.064000003
0.57599998 0.071999997 0.063999996
0.57800001 0.071999997 0.063999996
0.58000004 0.071999997 0.063999996
0.65200001 0.071999997 0.063999996
0.57599998 0.073999994 0.063999996
0.57800001 0.073999994 0.063999996
0.58000004 0.074000001 0.063999996
0.65200001 0.074000001 0.063999996
0.57600003 0.076000005 0.063999996
0.57799995 0.076000005 0.063999996
0.58000004 0.076000005 0.063999996
0.64999992 0.076000005 0.063999988
0.57600003 0.078000009 0.063999996
0.57800001 0.078000017 0.064000003
0.58000004 0.078000009 0.063999988
0.648 0.078000017 0.064000003
0.574 0.080000013 0.063999996
0.57600003 0.080000013 0.063999996
0.57800001 0.080000013 0.063999996
0.64400005 0.080000028 0.063999996
0.64600003 0.080000013 0.063999996
0.57399994 0.08200001 0.063999996
0.57600003 0.082000017 0.063999996
0.57800001 0.082000017 0.063999996
0.63800001 0.082000025 0.063999996
0.63999999 0.08200001 0.063999996
0.64200002 0.082000017 0.063999996
0.57600003 0.083999977 0.063999996
0.63600004 0.083999991 0.064000003
0.63800001 0.083999991 0.063999996
0.63600004 0.085999995 0.063999996
0.63600004 0.088 0.063999996
0.634 0.090000004 0.063999996
0.63200003 0.092 0.063999996
0.634 0.092000008 0.063999996
0.63200003 0.094000004 0.063999996
0.634 0.094000004 0.063999996
0.63199997 0.096000008 0.063999996
0.57800001 0.048 0.066
0.58000004 0.048000008 0.066
0.57800001 0.050000001 0.066
0.58000004 0.050000008 0.066
0.57800001 0.052000016 0.066000007
0.58000004 0.052000009 0.066
0.57800001 0.053999994 0.066000007
0.57800001 0.055999994 0.066
0.57800001 0.057999995 0.066
0.58000004 0.058000002 0.066000007
0.57800001 0.059999995 0.066
0.58000004 0.060000002 0.066
0.57800001 0.061999995 0.066
0.58000004 0.062000003 0.066
0.57800001 0.064000003 0.065999992
0.58000004 0.06400001 0.066
0.58200002 0.06400001 0.066000007
0.58000004 0.066000015 0.066
0.58200002 0.066000015 0.066
0.65200001 0.066000015 0.065999992
0.5800001 0.068000026 0.066000007
0.58200002 0.068000019 0.066
0.58399999 0.068000019 0.066000007
0.65200001 0.068000026 0.066000007
0.58000004 0.069999993 0.066000007
0.58200002 0.069999993 0.066
0.58399999 0.069999993 0.066
0.65200001 0.07 0.066000007
0.58000004 0.071999997 0.066
0.58200002 0.071999989 0.066
0.58399999 0.071999989 0.066
0.64999998 0.071999997 0.066
0.58000004 0.074000001 0.066
0.58200002 0.074000001 0.066000007
0.58399999 0.073999986 0.066
0.64999998 0.073999994 0.066
0.57800001 0.076000005 0.066
0.58000004 0.076000005 0.066
0.58200002 0.076000012 0.066
0.648 0.076000012 0.066
0.57800007 0.078000024 0.066000007
0.58000004 0.078000009 0.066
0.58200002 0.078000009 0.066
0.64600003 0.078000009 0.066
0.57800001 0.080000021 0.066000007
0.58000004 0.080000013 0.066
0.58200002 0.080000013 0.066
0.64200002 0.080000013 0.066000007
0.64400011 0.080000021 0.066000007
0.64600003 0.080000006 0.066
0.57600003 0.082000017 0.066
0.57800001 0.082000017 0.066000007
0.58000004 0.082000017 0.066000007
0.58200002 0.082000017 0.066
0.63800001 0.082000017 0.066
0.63999999 0.08200001 0.066
0.57600003 0.083999984 0.066
0.57800001 0.083999991 0.066000007
0.58000004 0.083999999 0.066000007
0.63600004 0.083999984 0.066000007
0.634 0.085999995 0.066
0.63600004 0.085999995 0.066000007
0.634 0.088 0.066
0.63200003 0.090000004 0.066
0.63 0.092 0.066
0.63200003 0.092000008 0.066
0.63 0.094000019 0.066000007
0.63200003 0.094000004 0.066
0.63 0.096000023 0.066
0.58000004 0.048000015 0.068000004
0.58000004 0.050000012 0.068000011
0.58000004 0.052000016 0.068000011
0.58000004 0.05399999 0.068000011
0.57800007 0.056000002 0.068000011
0.5800001 0.056000009 0.068000019
0.5800001 0.058000006 0.068000011
0.58000004 0.060000006 0.068000011
0.58000004 0.062000006 0.068000011
0.58200008 0.062000018 0.068000011
0.58000004 0.064000018 0.068000004
0.58200002 0.064000018 0.068000011
0.58400005 0.06400001 0.068000011
0.65000004 0.064000025 0.068000011
0.58200002 0.066000022 0.068000011
0.58399999 0.066000022 0.068000011
0.65000004 0.066000029 0.068000011
0.58200002 0.068000026 0.068000004
0.58399999 0.068000026 0.068000011
0.58600008 0.068000033 0.068000011
0.64999998 0.068000026 0.068000011
0.58200002 0.069999993 0.068000004
0.58399999 0.069999993 0.068000011
0.58600008 0.070000008 0.068000011
0.588 0.069999993 0.068000004
0.648 0.069999993 0.068000004
0.64999998 0.069999993 0.068000011
0.58200002 0.071999997 0.068000004
0.58399999 0.071999997 0.068000011
0.58600003 0.072000004 0.068000004
0.58800006 0.072000004 0.068000011
0.648 0.071999997 0.068000004
0.58200008 0.074000016 0.068000011
0.58399999 0.074000001 0.068000004
0.58600003 0.074000001 0.068000004
0.58800006 0.074000001 0.068000011
0.648 0.074000001 0.068000004
0.58200008 0.07600002 0.068000011
0.58400005 0.07600002 0.068000011
0.58600003 0.076000012 0.068000004
0.588 0.076000012 0.068000004
0.64600003 0.076000012 0.068000011
0.58200002 0.078000017 0.068000004
0.58400005 0.078000024 0.068000011
0.58600003 0.078000009 0.068000004
0.64400005 0.078000009 0.068000004
0.64600003 0.078000009 0.068000011
0.58000004 0.080000013 0.068000011
0.58200002 0.080000013 0.068000004
0.58399999 0.080000021 0.068000011
0.58600008 0.080000028 0.068000019
0.63800001 0.080000013 0.068000004
0.63999999 0.080000013 0.068000011
0.64200008 0.080000021 0.068000011
0.5800001 0.082000025 0.068000019
0.58200002 0.082000017 0.068000004
0.58399999 0.082000025 0.068000004
0.58600008 0.082000025 0.068000011
0.634 0.082000017 0.068000011
0.63600004 0.082000017 0.068000011
0.63800007 0.082000032 0.068000011
0.5800001 0.084000006 0.068000011
0.58200002 0.083999991 0.068000004
0.58399999 0.083999991 0.068000011
0.63200003 0.083999984 0.068000004
0.634 0.083999991 0.068000011
0.63200009 0.08600001 0.068000011
0.634 0.085999995 0.068000004
0.63 0.088000007 0.068000011
0.63200009 0.088000007 0.068000011
0.62800002 0.090000004 0.068000004
0.63 0.090000004 0.068000011
0.62600005 0.092000015 0.068000004
0.62800008 0.092000015 0.068000011
0.63 0.092000008 0.068000004
0.62600005 0.094000012 0.068000004
0.62800008 0.094000012 0.068000011
0.62600005 0.096000023 0.068000011
0.62800002 0.096000023 0.068000004
0.58200002 0.048000012 0.070000008
0.58000004 0.050000004 0.070000008
0.58200002 0.050000012 0.070000008
0.57999998 0.052000005 0.070000008
0.57999998 0.053999983 0.070000008
0.58000004 0.055999998 0.070000008
0.58000004 0.057999998 0.070000008
0.58000004 0.059999999 0.070000008
0.58200002 0.060000006 0.070000015
0.58200002 0.062000006 0.070000008
0.58399999 0.062000006 0.070000008
0.58200002 0.06400001 0.070000008
0.58399999 0.06400001 0.070000008
0.648 0.06400001 0.070000008
0.58399999 0.066000015 0.070000008
0.58600003 0.066000022 0.070000008
0.58799994 0.066000007 0.070000008
0.648 0.066000015 0.070000008
0.58399999 0.068000019 0.070000008
0.58600003 0.068000019 0.070000008
0.58799994 0.068000004 0.07
0.59000003 0.068000019 0.070000008
0.59200001 0.068000019 0.070000008
0.648 0.068000019 0.070000008
0.58600003 0.069999993 0.070000008
0.58799994 0.069999978 0.07
0.59000003 0.069999985 0.070000008
0.59200001 0.069999985 0.070000008
0.59399998 0.069999993 0.070000008
0.64599997 0.069999978 0.07
0.64799994 0.069999993 0.070000008
0.58600003 0.071999997 0.070000008
0.588 0.071999997 0.070000008
0.58999997 0.071999982 0.070000008
0.59200001 0.071999982 0.07
0.59399998 0.071999997 0.070000008
0.64600003 0.071999997 0.070000015
0.64799994 0.071999989 0.07
0.58600003 0.073999994 0.07
0.588 0.073999994 0.070000008
0.59000003 0.074000001 0.070000015
0.59199995 0.073999986 0.07
0.59399998 0.073999994 0.070000008
0.64400005 0.073999994 0.070000008
0.64600003 0.074000001 0.070000008
0.58599997 0.076000005 0.07
0.588 0.076000005 0.070000008
0.59000003 0.076000005 0.070000008
0.59199995 0.07599999 0.07
0.59399998 0.076000005 0.070000008
0.64199996 0.075999998 0.07
0.64399999 0.076000005 0.070000008
0.58599997 0.078000002 0.07
0.588 0.078000002 0.070000008
0.59000003 0.078000009 0.070000008
0.59200001 0.078000009 0.070000015
0.63999999 0.078000009 0.070000008
0.64200002 0.078000009 0.070000008
0.58399999 0.080000013 0.070000008
0.58600003 0.080000013 0.070000015
0.58799994 0.079999998 0.07
0.59000003 0.080000006 0.070000008
0.59200001 0.080000013 0.070000008
0.63199997 0.080000006 0.070000008
0.634 0.080000013 0.070000008
0.63600004 0.080000013 0.070000008
0.63799995 0.080000006 0.07
0.58399999 0.08200001 0.070000008
0.58600003 0.082000017 0.070000008
0.58799994 0.082000002 0.07
0.59000003 0.082000002 0.070000008
0.63 0.082000017 0.070000015
0.63199997 0.082000002 0.07
0.634 0.08200001 0.070000008
0.58199996 0.083999977 0.07
0.58399999 0.083999977 0.070000008
0.58600003 0.083999991 0.070000008
0.588 0.083999991 0.070000008
0.58999997 0.083999977 0.070000008
0.62800002 0.083999984 0.070000008
0.63 0.083999991 0.070000015
0.63199997 0.083999977 0.07
0.58399993 0.085999988 0.070000008
0.58600003 0.085999995 0.070000008
0.588 0.085999995 0.070000008
0.62599999 0.085999995 0.07
0.62800002 0.085999995 0.070000008
0.63 0.085999995 0.070000008
0.62400001 0.088 0.070000008
0.62600005 0.088 0.070000008
0.62799996 0.087999985 0.070000008
0.62199998 0.089999996 0.070000008
0.62400001 0.089999996 0.070000008
0.62600005 0.090000004 0.070000008
0.62799996 0.089999989 0.07
0.62 0.092000008 0.070000008
0.62199998 0.091999993 0.07
0.62399995 0.092 0.070000008
0.62600005 0.092 0.070000008
0.62 0.094000004 0.070000008
0.62200004 0.094000012 0.070000008
0.62399995 0.093999997 0.070000008
0.62600005 0.093999997 0.07
0.62599999 0.096000008 0.070000008
0.58200002 0.050000019 0.072000012
0.58000004 0.052000009 0.072000012
0.58200002 0.052000016 0.072000012
0.58000004 0.05399999 0.072000012
0.58200002 0.05399999 0.072000012
0.58000004 0.056000002 0.072000019
0.58200002 0.055999991 0.072000012
0.58000004 0.058000006 0.072000019
0.58200002 0.057999998 0.072000012
0.58200002 0.060000014 0.072000019
0.58399999 0.059999999 0.072000012
0.58200002 0.062000014 0.072000019
0.58399999 0.062000014 0.072000012
0.58399999 0.06400001 0.072000012
0.58600003 0.06400001 0.072000012
0.588 0.06400001 0.072000012
0.64600003 0.06400001 0.072000012
0.58600003 0.066000029 0.072000012
0.588 0.066000015 0.072000012
0.59000003 0.066000015 0.072000012
0.59200001 0.066000022 0.072000012
0.59399998 0.066000015 0.072000012
0.59600002 0.066000015 0.072000012
0.64399999 0.066000015 0.072000012
0.64600003 0.066000015 0.072000004
0.58799994 0.068000019 0.072000012
0.59000003 0.068000019 0.072000012
0.59200001 0.068000019 0.072000012
0.59399998 0.068000033 0.072000019
0.59600002 0.068000019 0.072000012
0.59800005 0.068000019 0.072000012
0.64400005 0.068000033 0.072000012
0.64600003 0.068000019 0.072000004
0.59000003 0.069999993 0.072000012
0.59200001 0.069999993 0.072000012
0.59399998 0.07 0.072000019
0.59600002 0.069999985 0.072000012
0.59800005 0.069999993 0.072000012
0.60000002 0.069999993 0.072000012
0.64400005 0.07 0.072000012
0.59000003 0.071999997 0.072000012
0.59200001 0.071999997 0.072000012
0.59399998 0.071999997 0.072000012
0.59600002 0.071999997 0.072000019
0.59800005 0.071999997 0.072000012
0.60000002 0.071999997 0.072000012
0.602 0.071999997 0.072000019
0.64200002 0.071999997 0.072000012
0.64400005 0.071999997 0.072000012
0.59200001 0.073999994 0.072000012
0.59399998 0.074000001 0.072000012
0.59600002 0.074000001 0.072000019
0.59800005 0.073999994 0.072000012
0.60000002 0.073999994 0.072000012
0.602 0.074000001 0.072000012
0.64200002 0.073999994 0.072000012
0.64400005 0.074000001 0.072000012
0.59000003 0.076000005 0.072000019
0.59200001 0.076000005 0.072000004
0.59399998 0.076000005 0.072000012
0.59600002 0.076000005 0.072000012
0.59800005 0.07600002 0.072000012
0.60000002 0.076000005 0.072000012
0.602 0.076000005 0.072000012
0.63999999 0.076000005 0.072000012
0.64199996 0.076000005 0.072000004
0.59000003 0.078000009 0.072000012
0.59200001 0.078000017 0.072000019
0.59399998 0.078000002 0.072000012
0.59600002 0.078000009 0.072000012
0.59800005 0.078000017 0.072000012
0.60000002 0.078000002 0.072000012
0.602 0.078000009 0.072000012
0.62800002 0.078000017 0.072000019
0.63 0.078000009 0.072000004
0.63200003 0.078000009 0.072000012
0.634 0.078000017 0.072000012
0.63599998 0.078000002 0.072000004
0.63800001 0.078000009 0.072000012
0.63999999 0.078000009 0.072000012
0.59000003 0.080000013 0.072000012
0.59200001 0.080000013 0.072000019
0.59399998 0.080000013 0.072000012
0.59600002 0.080000013 0.072000012
0.59800005 0.080000013 0.072000019
0.60000002 0.080000013 0.072000012
0.602 0.080000013 0.072000012
0.62200004 0.080000028 0.072000019
0.62400001 0.080000013 0.072000004
0.62600005 0.080000013 0.072000012
0.62800002 0.080000013 0.072000012
0.62999994 0.080000013 0.072000012
0.63200003 0.080000013 0.072000012
0.634 0.080000013 0.072000012
0.58799994 0.08200001 0.072000012
0.59000003 0.082000017 0.072000012
0.59200001 0.082000017 0.072000019
0.59399998 0.082000017 0.072000012
0.59600002 0.082000017 0.072000012
0.59800005 0.082000017 0.072000012
0.60000002 0.082000017 0.072000012
0.602 0.082000025 0.072000019
0.62 0.082000017 0.072000012
0.62200004 0.082000025 0.072000019
0.62399995 0.08200001 0.072000012
0.62600005 0.082000017 0.072000012
0.62800002 0.082000017 0.072000012
0.63 0.082000025 0.072000019
0.588 0.083999991 0.072000012
0.59000003 0.083999984 0.072000012
0.59200001 0.083999991 0.072000019
0.59399998 0.083999991 0.072000012
0.59600002 0.083999984 0.072000012
0.59800005 0.083999991 0.072000012
0.60000002 0.083999991 0.072000012
0.602 0.083999991 0.072000019
0.60400003 0.083999984 0.072000012
0.60600001 0.083999991 0.072000012
0.61800003 0.083999977 0.072000012
0.62 0.083999991 0.072000012
0.62200004 0.083999991 0.072000019
0.62400001 0.083999991 0.072000019
0.62600005 0.083999991 0.072000012
0.62800002 0.083999991 0.072000012
0.58600003 0.086000003 0.072000012
0.588 0.086000003 0.072000012
0.59000003 0.085999988 0.072000012
0.59200001 0.085999995 0.072000012
0.59399998 0.086000003 0.072000019
0.59600002 0.08600001 0.072000012
0.59800005 0.085999995 0.072000012
0.60000002 0.085999995 0.072000012
0.602 0.086000003 0.072000012
0.60399997 0.085999995 0.072000012
0.60600001 0.085999995 0.072000012
0.60800004 0.085999995 0.072000012
0.61000001 0.086000003 0.072000019
0.61199999 0.085999995 0.072000012
0.61400002 0.085999995 0.072000012
0.616 0.086000003 0.072000012
0.61800003 0.086000003 0.072000012
0.62 0.085999995 0.072000012
0.62200004 0.085999995 0.072000012
0.62400001 0.086000003 0.072000019
0.62600005 0.085999988 0.072000012
0.59200001 0.088 0.072000012
0.59399998 0.088 0.072000019
0.59600002 0.088 0.072000012
0.59800005 0.088 0.072000012
0.60000002 0.088 0.072000012
0.602 0.088 0.072000012
0.60400003 0.088 0.072000019
0.60600001 0.088 0.072000012
0.60800004 0.088 0.072000012
0.61000001 0.088 0.072000012
0.61199999 0.088000007 0.072000019
0.61400002 0.088 0.072000012
0.616 0.088 0.072000012
0.61800003 0.088000007 0.072000019
0.62 0.088 0.072000012
0.62200004 0.088 0.072000012
0.62400001 0.088 0.072000012
0.60400003 0.090000011 0.072000012
0.60600001 0.090000011 0.072000019
0.60800004 0.089999996 0.072000012
0.61000001 0.090000004 0.072000012
0.61199999 0.090000011 0.072000019
0.61400002 0.089999996 0.072000012
0.616 0.090000004 0.072000012
0.61800003 0.090000004 0.072000019
0.62 0.090000011 0.072000012
0.62200004 0.089999996 0.072000012
0.60800004 0.092 0.072000012
0.61000001 0.092 0.072000012
0.61199999 0.092 0.072000019
0.61400002 0.092000008 0.072000012
0.616 0.092 0.072000012
0.61800003 0.092000008 0.072000012
0.62 0.092000008 0.072000012
0.62199998 0.092 0.072000012
0.61599994 0.094000004 0.072000012
0.61800003 0.094000004 0.072000012
0.62 0.094000012 0.072000019
0.58200002 0.050000023 0.074000016
0.58400005 0.050000023 0.074000023
0.58600003 0.050000016 0.074000016
0.58200002 0.052000023 0.074000016
0.58399999 0.052000023 0.074000016
0.58600003 0.052000016 0.074000016
0.58200002 0.053999998 0.074000016
0.58399999 0.053999998 0.074000016
0.58200002 0.055999994 0.074000016
0.58399999 0.055999994 0.074000016
0.58200002 0.058000002 0.074000016
0.58399999 0.058000002 0.074000016
0.58600003 0.05800001 0.074000023
0.58399999 0.060000002 0.074000016
0.58600003 0.06000001 0.074000016
0.58400005 0.062000018 0.074000016
0.58600003 0.06200001 0.074000016
0.588 0.06200001 0.074000023
0.59000009 0.062000018 0.074000016
0.588 0.064000018 0.074000016
0.59000003 0.064000018 0.074000016
0.59200007 0.064000025 0.074000023
0.59399998 0.06400001 0.074000016
0.59600002 0.064000018 0.074000016
0.64200008 0.064000018 0.074000023
0.64400005 0.06400001 0.074000016
0.59200001 0.066000029 0.074000016
0.59399998 0.066000015 0.074000016
0.59600002 0.066000015 0.074000023
0.59800005 0.066000029 0.074000016
0.60000008 0.066000029 0.074000023
0.64200002 0.066000029 0.074000016
0.64400005 0.066000015 0.074000016
0.59600002 0.068000019 0.074000016
0.59800005 0.068000026 0.074000016
0.60000002 0.068000026 0.074000023
0.60200006 0.068000033 0.074000023
0.64200002 0.068000026 0.074000016
0.64400005 0.068000033 0.074000023
0.59600002 0.069999993 0.074000016
0.59800005 0.069999993 0.074000016
0.60000002 0.069999993 0.074000023
0.60200006 0.070000008 0.074000023
0.60400003 0.069999993 0.074000016
0.64200002 0.07 0.074000016
0.59800005 0.071999997 0.074000016
0.60000002 0.071999997 0.074000016
0.602 0.072000004 0.074000023
0.60400003 0.071999997 0.074000016
0.60600001 0.071999997 0.074000016
0.60800004 0.072000004 0.074000023
0.63999999 0.071999997 0.074000016
0.64200002 0.071999997 0.074000016
0.59800005 0.074000001 0.074000016
0.60000002 0.074000001 0.074000016
0.602 0.074000001 0.074000023
0.60400009 0.074000016 0.074000016
0.60600001 0.074000001 0.074000016
0.60800004 0.074000001 0.074000023
0.61000001 0.074000001 0.074000016
0.61200005 0.074000016 0.074000023
0.64000005 0.074000008 0.074000023
0.59800011 0.07600002 0.074000016
0.60000002 0.076000005 0.074000016
0.602 0.076000012 0.074000016
0.60400003 0.07600002 0.074000016
0.60600001 0.076000005 0.074000016
0.60800004 0.076000012 0.074000016
0.61000001 0.076000012 0.074000023
0.61200005 0.07600002 0.074000016
0.61400002 0.076000005 0.074000016
0.616 0.076000012 0.074000023
0.61800003 0.076000012 0.074000016
0.62000006 0.07600002 0.074000023
0.62200004 0.076000012 0.074000016
0.63600004 0.076000005 0.074000016
0.63800001 0.076000012 0.074000016
0.59800005 0.078000024 0.074000016
0.60000002 0.078000009 0.074000016
0.602 0.078000009 0.074000016
0.60400003 0.078000024 0.074000023
0.60600007 0.078000024 0.074000016
0.60800004 0.078000009 0.074000016
0.61000001 0.078000009 0.074000023
0.61199999 0.078000024 0.074000016
0.61400008 0.078000024 0.074000023
0.616 0.078000009 0.074000016
0.61800003 0.078000009 0.074000016
0.62 0.078000024 0.074000023
0.62200004 0.078000009 0.074000016
0.62400001 0.078000009 0.074000016
0.62600005 0.078000024 0.074000016
0.62800008 0.078000024 0.074000023
0.63 0.078000009 0.074000016
0.63200003 0.078000009 0.074000016
0.634 0.078000024 0.074000023
0.59800005 0.080000021 0.074000023
0.60000008 0.080000021 0.074000016
0.602 0.080000013 0.074000016
0.60400003 0.080000013 0.074000023
0.60600001 0.080000021 0.074000016
0.6080001 0.080000021 0.074000023
0.61000001 0.080000013 0.074000016
0.61199999 0.080000021 0.074000016
0.61400008 0.080000021 0.074000023
0.616 0.080000013 0.074000016
0.61800003 0.080000013 0.074000016
0.62 0.080000021 0.074000016
0.6220001 0.080000028 0.074000023
0.62400001 0.080000013 0.074000016
0.62600005 0.080000021 0.074000016
0.59600002 0.082000017 0.074000016
0.59800005 0.082000017 0.074000023
0.60000002 0.082000017 0.074000016
0.60200006 0.082000032 0.074000023
0.60400003 0.082000017 0.074000016
0.60600001 0.082000017 0.074000016
0.6080001 0.082000017 0.074000023
0.61000001 0.082000017 0.074000016
0.61199999 0.082000017 0.074000023
0.61400002 0.082000017 0.074000016
0.61600006 0.082000032 0.074000023
0.61800003 0.082000017 0.074000016
0.62 0.082000017 0.074000016
0.62200004 0.082000032 0.074000023
0.59600002 0.083999991 0.074000016
0.59800005 0.083999991 0.074000023
0.60000002 0.083999991 0.074000016
0.60200006 0.083999999 0.074000023
0.60400003 0.083999991 0.074000016
0.60600001 0.083999991 0.074000016
0.60800004 0.083999991 0.074000023
0.61000001 0.083999984 0.074000016
0.61199999 0.083999991 0.074000023
0.61400002 0.083999991 0.074000016
0.61600006 0.083999999 0.074000023
0.61800003 0.083999984 0.074000016
0.62 0.083999991 0.074000016
0.59399998 0.08600001 0.074000023
0.59600008 0.08600001 0.074000023
0.59800005 0.085999995 0.074000016
0.60000002 0.086000003 0.074000016
0.602 0.08600001 0.074000016
0.60400003 0.085999995 0.074000016
0.60600001 0.085999995 0.074000023
0.60800004 0.086000003 0.074000016
0.61000007 0.08600001 0.074000023
0.61199999 0.085999995 0.074000016
0.61400002 0.086000003 0.074000016
0.616 0.08600001 0.074000023
0.59200001 0.088 0.074000016
0.59399998 0.088 0.074000023
0.59600002 0.088000007 0.074000016
0.59800005 0.088 0.074000016
0.60000002 0.088000007 0.074000023
0.602 0.088000007 0.074000016
0.60400009 0.088000007 0.074000023
0.60600001 0.088 0.074000016
0.60800004 0.088 0.074000016
0.61000001 0.088000007 0.074000023
0.61200005 0.088000014 0.074000023
0.61400002 0.088 0.074000016
0.616 0.088000007 0.074000016
0.60000002 0.090000004 0.074000016
0.602 0.090000011 0.074000016
0.60400003 0.090000018 0.074000023
0.60600007 0.090000018 0.074000023
0.60800004 0.090000004 0.074000016
0.61000001 0.090000011 0.074000016
0.61199999 0.090000018 0.074000023
0.61400002 0.090000004 0.074000016
0.60800004 0.092000008 0.074000016
0.61000001 0.092000008 0.074000016
0.61199999 0.092000008 0.074000023
0.61400008 0.092000015 0.074000016
0.58400005 0.050000027 0.076000027
0.58600003 0.050000019 0.076000027
0.588 0.050000019 0.07600002
0.58400005 0.052000031 0.076000027
0.58600003 0.052000023 0.07600002
0.588 0.052000023 0.07600002
0.59000009 0.052000031 0.076000027
0.58400005 0.054000001 0.076000027
0.58600008 0.054000005 0.076000035
0.588 0.053999998 0.07600002
0.59000009 0.053999998 0.076000027
0.58400005 0.056000002 0.07600002
0.58600008 0.056000009 0.076000027
0.588 0.056000002 0.07600002
0.59000003 0.056000002 0.07600002
0.58399999 0.05800001 0.07600002
0.58600008 0.058000017 0.076000027
0.58800006 0.058000017 0.076000035
0.59000003 0.05800001 0.07600002
0.58600008 0.060000014 0.076000027
0.58800006 0.060000017 0.076000027
0.59000003 0.06000001 0.07600002
0.59200001 0.06000001 0.07600002
0.58800006 0.062000018 0.076000027
0.59000009 0.062000021 0.076000027
0.59200001 0.06200001 0.07600002
0.59399998 0.062000018 0.076000027
0.59600008 0.062000018 0.07600002
0.59800011 0.062000021 0.076000027
0.59399998 0.064000018 0.07600002
0.59600008 0.064000025 0.07600002
0.59800011 0.064000025 0.076000027
0.60000002 0.064000018 0.07600002
0.64200008 0.064000025 0.076000027
0.59800011 0.066000029 0.07600002
0.60000008 0.066000029 0.076000027
0.602 0.066000029 0.076000027
0.60400003 0.066000029 0.07600002
0.63999999 0.066000029 0.07600002
0.60000008 0.068000033 0.076000027
0.60200006 0.068000033 0.076000035
0.60400003 0.068000033 0.07600002
0.60600007 0.068000033 0.076000027
0.63999999 0.068000026 0.076000027
0.60200006 0.070000008 0.076000035
0.60400003 0.070000008 0.07600002
0.60600007 0.070000008 0.076000027
0.6080001 0.070000008 0.076000027
0.61000001 0.069999993 0.07600002
0.63800007 0.070000008 0.076000027
0.63999999 0.069999993 0.076000027
0.60400003 0.072000004 0.07600002
0.60600001 0.072000004 0.07600002
0.6080001 0.072000012 0.076000027
0.61000007 0.072000012 0.076000027
0.61199999 0.072000004 0.07600002
0.61400002 0.072000004 0.076000027
0.61600006 0.072000012 0.07600002
0.63800007 0.072000012 0.076000027
0.60600001 0.074000001 0.07600002
0.60800004 0.074000016 0.076000027
0.61000007 0.074000016 0.07600002
0.61200005 0.074000016 0.076000027
0.61400002 0.074000001 0.076000027
0.61600006 0.074000016 0.076000027
0.61800009 0.074000016 0.076000027
0.62 0.074000001 0.07600002
0.62200004 0.074000016 0.07600002
0.634 0.074000001 0.076000027
0.63600004 0.074000001 0.07600002
0.63800007 0.074000016 0.076000027
0.60800004 0.07600002 0.07600002
0.61000007 0.07600002 0.076000027
0.61200005 0.076000027 0.076000027
0.61400002 0.076000012 0.07600002
0.616 0.07600002 0.076000027
0.61800009 0.07600002 0.076000027
0.62000006 0.076000027 0.076000027
0.62200004 0.07600002 0.076000027
0.62400001 0.07600002 0.07600002
0.62600011 0.076000027 0.076000027
0.62800002 0.076000012 0.07600002
0.63 0.07600002 0.07600002
0.63200009 0.07600002 0.076000027
0.63400006 0.076000027 0.076000027
0.63600004 0.076000012 0.07600002
0.61200005 0.078000024 0.07600002
0.616 0.078000024 0.076000027
0.61800009 0.078000024 0.07600002
0.62000006 0.078000024 0.076000027
0.62200004 0.078000024 0.07600002
0.62400001 0.078000024 0.07600002
0.588 0.050000004 0.078000024
0.588 0.052000009 0.078000024
0.59000003 0.052000012 0.078000024
0.59200001 0.052000016 0.078000031
0.59399992 0.052000009 0.078000024
0.59600002 0.052000009 0.078000024
0.588 0.053999983 0.078000024
0.59000003 0.053999983 0.078000024
0.59200001 0.05399999 0.078000031
0.59399992 0.053999975 0.078000017
0.59600002 0.053999983 0.078000024
0.59800005 0.053999983 0.078000024
0.60000002 0.05399999 0.078000024
0.602 0.053999975 0.078000024
0.58799994 0.055999987 0.078000017
0.59000003 0.055999987 0.078000024
0.59200001 0.055999994 0.078000024
0.59399998 0.055999994 0.078000031
0.59600002 0.055999987 0.078000024
0.59800005 0.055999987 0.078000024
0.59000003 0.057999991 0.078000024
0.59200001 0.057999991 0.078000024
0.59399998 0.057999998 0.078000031
0.59599996 0.057999983 0.078000024
0.59800005 0.057999991 0.078000024
0.60000002 0.057999991 0.078000031
0.59200001 0.059999991 0.078000024
0.59399998 0.059999999 0.078000024
0.59600002 0.059999999 0.078000024
0.59800005 0.059999991 0.078000024
0.60000002 0.059999991 0.078000024
0.602 0.059999999 0.078000024
0.62 0.059999995 0.078000024
0.59600002 0.061999999 0.078000024
0.59800005 0.062000006 0.078000024
0.60000002 0.061999992 0.078000024
0.602 0.061999999 0.078000024
0.60400003 0.062000006 0.078000024
0.61800003 0.061999999 0.078000024
0.61999995 0.061999995 0.078000024
0.63800001 0.062000003 0.078000024
0.59999996 0.063999996 0.078000024
0.602 0.063999996 0.078000024
0.60400003 0.06400001 0.078000024
0.60600001 0.06400001 0.078000031
0.616 0.064000003 0.078000024
0.61800003 0.06400001 0.078000024
0.62 0.06400001 0.078000031
0.63800001 0.064000003 0.078000024
0.602 0.066000007 0.078000024
0.60400003 0.066000015 0.078000024
0.60600001 0.066000015 0.078000024
0.60799998 0.066000007 0.078000024
0.61400002 0.066000015 0.078000031
0.61599994 0.066000007 0.078000024
0.61800003 0.066000007 0.078000024
0.63799995 0.066000007 0.078000024
0.60400003 0.068000019 0.078000024
0.60600001 0.068000019 0.078000024
0.60800004 0.068000019 0.078000031
0.60999995 0.068000004 0.078000024
0.61199999 0.068000019 0.078000024
0.61400002 0.068000019 0.078000031
0.616 0.068000019 0.078000024
0.61800003 0.068000004 0.078000024
0.63600004 0.068000019 0.078000024
0.63799995 0.068000011 0.078000024
0.60800004 0.069999993 0.078000031
0.60999995 0.069999978 0.078000024
0.61199999 0.069999993 0.078000024
0.61400002 0.069999993 0.078000031
0.616 0.069999993 0.078000024
0.61800003 0.069999978 0.078000024
0.62 0.069999993 0.078000024
0.63600004 0.069999993 0.078000024
0.61199999 0.071999989 0.078000024
0.61400002 0.071999982 0.078000024
0.616 0.071999997 0.078000024
0.61799997 0.071999982 0.078000024
