# .PCD v0.7 - Point Cloud Data file format
VERSION 0.7
FIELDS x y z
SIZE 4 4 4
TYPE F F F
COUNT 1 1 1
WIDTH 1318
HEIGHT 1
VIEWPOINT 0 0 0 1 0 0 0
POINTS 1318
DATA ascii
0.5616923 -0.077692308 -0.017384605
0.56700003 -0.077500001 -0.017499991
0.57211769 -0.078117654 -0.017058814
0.57700008 -0.077999994 -0.01699999
0.58139998 -0.078000002 -0.016399989
0.58600003 -0.079999998 -0.017999992
0.60800004 -0.079999998 -0.017999992
0.61199999 -0.078615382 -0.017384605
0.61711109 -0.077777773 -0.019111104
0.62174994 -0.078124993 -0.018874992
0.6268 -0.077999994 -0.01679999
0.63 -0.078999996 -0.015999988
0.71349996 -0.077500001 -0.015999988
0.71719998 -0.078400001 -0.015999988
0.72240001 -0.076800004 -0.015999988
0.727 -0.078000002 -0.015999988
0.73246163 -0.077846155 -0.016615374
0.73699999 -0.077999987 -0.01699999
0.74199992 -0.077999987 -0.01699999
0.74700016 -0.078000002 -0.01699999
0.75199997 -0.077882349 -0.016941169
0.75699997 -0.078000002 -0.01699999
0.76211774 -0.077882342 -0.016941166
0.76700002 -0.077999987 -0.01699999
0.77200007 -0.078000002 -0.016999993
0.77700001 -0.078000002 -0.01699999
0.78200012 -0.077999987 -0.016999993
0.78700012 -0.078000002 -0.01699999
0.79199994 -0.078000002 -0.016999986
0.79699993 -0.078000002 -0.01699999
0.80200005 -0.077999979 -0.016999986
0.80699998 -0.078000002 -0.01699999
0.81200016 -0.078000002 -0.016999986
0.81699991 -0.077999994 -0.01699999
0.82200003 -0.077999979 -0.016999986
0.82700008 -0.077999994 -0.01699999
0.8319999 -0.078000002 -0.01699999
0.83700013 -0.077999994 -0.01699999
0.84200007 -0.078000002 -0.016999986
0.84699994 -0.077999994 -0.01699999
0.85200006 -0.077999987 -0.016999993
0.85699993 -0.078000002 -0.01699999
0.86199993 -0.077999994 -0.016999993
0.867091 -0.078000002 -0.0170909
0.87199998 -0.077833332 -0.017499991
0.87709087 -0.078000002 -0.0170909
0.88200003 -0.078000002 -0.016999993
0.88700008 -0.078000002 -0.01699999
0.89200008 -0.077999994 -0.016999986
0.89714283 -0.078285709 -0.017714277
0.90200013 -0.078000002 -0.01699999
0.90700001 -0.078000002 -0.01699999
0.91159999 -0.078000002 -0.01679999
0.917 -0.078000002 -0.015999988
0.92199993 -0.077999994 -0.017999992
0.40200001 -0.071999997 -0.01899999
0.40700004 -0.072000004 -0.018999994
0.412 -0.072000004 -0.018999994
0.41700003 -0.071999997 -0.018999994
0.42157143 -0.072000004 -0.018714279
0.42700002 -0.071999997 -0.017999992
0.43250003 -0.071999997 -0.018499993
0.43685716 -0.072285719 -0.018285707
0.44166669 -0.071999997 -0.018499993
0.44700003 -0.072000004 -0.017999992
0.45199999 -0.071999997 -0.017999992
0.45700002 -0.072000004 -0.017999992
0.46200001 -0.071999997 -0.017999992
0.46714285 -0.072285719 -0.017714277
0.47214288 -0.072428569 -0.017285705
0.47688887 -0.072222225 -0.017333323
0.48215386 -0.072307691 -0.017384605
0.48685715 -0.072285712 -0.017714277
0.49200004 -0.071999997 -0.017999992
0.49700001 -0.071999997 -0.017999992
0.50218183 -0.072363637 -0.017636355
0.50700003 -0.072000004 -0.017999992
0.51216668 -0.071833335 -0.017499991
0.51675004 -0.07175 -0.017499991
0.52219999 -0.072200008 -0.017799992
0.52700001 -0.071500003 -0.017499991
0.53200001 -0.071833335 -0.017499991
0.53711104 -0.071999997 -0.017333323
0.54200006 -0.071999997 -0.017999992
0.54724997 -0.071999997 -0.017499991
0.55199999 -0.072000004 -0.01699999
0.55690908 -0.072181813 -0.0170909
0.56200004 -0.072181813 -0.017636355
0.56711113 -0.071999997 -0.017333323
0.57200003 -0.071999997 -0.01699999
0.57700008 -0.071999997 -0.01699999
0.58100003 -0.071800008 -0.016599989
0.58600003 -0.071999997 -0.015999988
0.59800005 -0.070000008 -0.01699999
0.60199994 -0.07057143 -0.017714277
0.60699999 -0.071999997 -0.018333325
0.61199999 -0.071000002 -0.016499989
0.61725003 -0.071999997 -0.018499993
0.62175 -0.072125003 -0.018874995
0.62666672 -0.071999997 -0.016666656
0.63 -0.072000004 -0.015999988
0.71250004 -0.07100001 -0.015999988
0.71750009 -0.071500003 -0.015999988
0.722 -0.071999997 -0.015999988
0.727 -0.072000004 -0.015999988
0.73221064 -0.071684219 -0.017263146
0.73700005 -0.072000004 -0.01699999
0.74199998 -0.072000004 -0.01699999
0.74700016 -0.072000004 -0.01699999
0.75173324 -0.07213334 -0.017199989
0.75711113 -0.072444446 -0.017333323
0.76200002 -0.071999997 -0.01699999
0.76699996 -0.071999997 -0.01699999
0.77200013 -0.072000004 -0.01699999
0.77700001 -0.072000004 -0.01699999
0.78200001 -0.072000012 -0.01699999
0.78700012 -0.071999997 -0.01699999
0.79199994 -0.072000004 -0.016999986
0.79699999 -0.071999997 -0.01699999
0.80200005 -0.071999997 -0.016999993
0.80699998 -0.072000004 -0.01699999
0.81200016 -0.072000004 -0.01699999
0.81699997 -0.072000004 -0.01699999
0.82199997 -0.072000012 -0.016999993
0.82700008 -0.072000004 -0.01699999
0.8319999 -0.072000012 -0.016999986
0.83700007 -0.072000004 -0.01699999
0.84200001 -0.072000012 -0.016999993
0.84700006 -0.072000004 -0.01699999
0.85200012 -0.071999997 -0.01699999
0.85699993 -0.071999997 -0.01699999
0.86200011 -0.072000012 -0.01699999
0.8670001 -0.071999997 -0.01699999
0.87199998 -0.071882352 -0.017058814
0.87700009 -0.071999997 -0.01699999
0.88199997 -0.072000004 -0.016999986
0.88700008 -0.071999997 -0.01699999
0.8920002 -0.071999997 -0.01699999
0.896909 -0.07181818 -0.0170909
0.90211773 -0.072000004 -0.017058814
0.90700006 -0.071999997 -0.01699999
0.91159993 -0.072000004 -0.01679999
0.91699988 -0.072000004 -0.015999988
0.92125005 -0.072000012 -0.017499991
0.40200004 -0.067000002 -0.018999994
0.40700001 -0.067000002 -0.018999994
0.41200003 -0.067000002 -0.018999994
0.41700003 -0.067000002 -0.018999994
0.42155558 -0.066888891 -0.01866666
0.42699999 -0.067000002 -0.017999992
0.43228573 -0.067142859 -0.018285707
0.43680006 -0.067200005 -0.018399993
0.44171429 -0.067142852 -0.018285707
0.447 -0.067000002 -0.017999992
0.45200002 -0.067000002 -0.017999992
0.45699999 -0.067000002 -0.017999992
0.46200001 -0.067000002 -0.017999992
0.46733332 -0.067000002 -0.017333323
0.47222221 -0.066888891 -0.017333323
0.47680002 -0.066799998 -0.017599991
0.48200002 -0.067000002 -0.017999992
0.48699999 -0.067000002 -0.017999992
0.49200001 -0.067000002 -0.017999992
0.49700001 -0.067000002 -0.017999992
0.50200003 -0.067000002 -0.017999992
0.50700003 -0.067000002 -0.017999992
0.51200002 -0.067000002 -0.017999992
0.51700002 -0.067000002 -0.017999992
0.52200001 -0.067000002 -0.017999992
0.52720004 -0.066799998 -0.017599991
0.53171426 -0.066857144 -0.017714277
0.53685713 -0.066857144 -0.017142847
0.54171431 -0.067142852 -0.017714277
0.54699999 -0.067000002 -0.017999992
0.55199999 -0.067250006 -0.017499991
0.55700004 -0.067000002 -0.017999992
0.56225002 -0.066749997 -0.017499991
0.56700003 -0.067000002 -0.01699999
0.57199997 -0.067000002 -0.01699999
0.57700002 -0.067000002 -0.01699999
0.58149999 -0.067000002 -0.016499989
0.58600003 -0.066 -0.015999988
0.59200001 -0.06666667 -0.015999988
0.597 -0.067000002 -0.015999988
0.60200006 -0.066799998 -0.015999988
0.60699999 -0.067000002 -0.015999988
0.61000001 -0.067000002 -0.015999988
0.61800003 -0.068000004 -0.017999992
0.62244451 -0.066888891 -0.017333323
0.6268 -0.067200005 -0.016399989
0.63 -0.068000004 -0.015999988
0.71333331 -0.06666667 -0.015999988
0.71700001 -0.067000002 -0.015999988
0.72220004 -0.066799991 -0.01679999
0.72714287 -0.066857152 -0.016857132
0.73218179 -0.067090906 -0.017818173
0.73685712 -0.066857144 -0.018285707
0.74199998 -0.067090906 -0.017818173
0.7470001 -0.067000002 -0.01699999
0.75200003 -0.067000002 -0.01699999
0.7568 -0.066799998 -0.017599991
0.76218188 -0.067090914 -0.0170909
0.76700008 -0.067000009 -0.01699999
0.77200007 -0.066999994 -0.01699999
0.77700001 -0.067000002 -0.01699999
0.78200006 -0.066999994 -0.01699999
0.78700006 -0.067000002 -0.01699999
0.792 -0.066999994 -0.01699999
0.79700005 -0.067000002 -0.01699999
0.80200005 -0.066999994 -0.01699999
0.80700004 -0.067000002 -0.01699999
0.8120001 -0.067000009 -0.01699999
0.81699997 -0.067000009 -0.01699999
0.82200003 -0.066999994 -0.01699999
0.82700008 -0.067000002 -0.01699999
0.83200002 -0.066999994 -0.01699999
0.83700001 -0.067000009 -0.01699999
0.84200007 -0.067000002 -0.01699999
0.84700006 -0.067000002 -0.01699999
0.85200006 -0.067000002 -0.01699999
0.85699999 -0.066999994 -0.01699999
0.86199993 -0.067000002 -0.01699999
0.86700004 -0.067000002 -0.01699999
0.87199998 -0.067000009 -0.01699999
0.87699991 -0.066999994 -0.01699999
0.88199997 -0.067000002 -0.01699999
0.88700008 -0.067000002 -0.01699999
0.89200014 -0.067090914 -0.0170909
0.89685714 -0.066857152 -0.017142847
0.90200001 -0.067000002 -0.01699999
0.90700006 -0.067000002 -0.01699999
0.91181827 -0.066909082 -0.01690908
0.91699994 -0.067000002 -0.015999988
0.92150003 -0.067000002 -0.017999992
0.40199998 -0.063000008 -0.018999994
0.40700001 -0.063000008 -0.018999994
0.41200003 -0.063000016 -0.018999994
0.417 -0.063000001 -0.018999994
0.42181823 -0.062909104 -0.018909084
0.42680001 -0.062800005 -0.018399993
0.43228573 -0.062857144 -0.018285707
0.43700004 -0.063000001 -0.017999992
0.442 -0.063000001 -0.017999992
0.44700003 -0.063000001 -0.017999992
0.45200002 -0.063000001 -0.017999992
0.45699999 -0.063000001 -0.017999992
0.46200001 -0.063000001 -0.017999992
0.46719998 -0.063199997 -0.017599991
0.472 -0.063000001 -0.017999992
0.47719997 -0.063200004 -0.017599991
0.48200002 -0.063000001 -0.017999992
0.48699999 -0.063000001 -0.017999992
0.49200001 -0.063000001 -0.017999992
0.49700004 -0.063000001 -0.017999992
0.50228572 -0.062857144 -0.017714277
0.50700003 -0.063000001 -0.017999992
0.51200002 -0.063000001 -0.017999992
0.51700002 -0.063000001 -0.017999992
0.52200001 -0.063000001 -0.017999992
0.52714288 -0.063142858 -0.017142847
0.53224999 -0.063000008 -0.017499991
0.53666669 -0.063000001 -0.017333323
0.542 -0.063000001 -0.017999992
0.54699999 -0.063000001 -0.017999992
0.55200005 -0.062857144 -0.017714277
0.55700004 -0.063000001 -0.017999992
0.56218189 -0.062909096 -0.0170909
0.56700003 -0.063000008 -0.01699999
0.57199997 -0.063000016 -0.01699999
0.57700008 -0.063000008 -0.01699999
0.58159995 -0.063000008 -0.01679999
0.58700001 -0.063000001 -0.015999988
0.59200001 -0.063000001 -0.015999988
0.597 -0.063000001 -0.015999988
0.60200006 -0.063000001 -0.015999988
0.60699999 -0.063000001 -0.015999988
0.61000001 -0.063000001 -0.015999988
0.62199998 -0.063000008 -0.017399991
0.62666672 -0.063333333 -0.015999988
0.70800006 -0.062000006 -0.019999996
0.713 -0.063000001 -0.01699999
0.71700001 -0.062666677 -0.016666656
0.72228569 -0.063714288 -0.017714277
0.72600001 -0.063999996 -0.01699999
0.73400003 -0.063999996 -0.019999996
0.73700005 -0.063999996 -0.019999996
0.74225003 -0.063250005 -0.019249994
0.74675012 -0.063250005 -0.017999992
0.75200003 -0.063000016 -0.01699999
0.75699997 -0.063000001 -0.01699999
0.76218182 -0.063090913 -0.0170909
0.76700008 -0.063000001 -0.01699999
0.77200001 -0.063000016 -0.01699999
0.77699995 -0.063000001 -0.01699999
0.78200001 -0.063000001 -0.01699999
0.78700006 -0.063000001 -0.01699999
0.792 -0.063000001 -0.01699999
0.79699999 -0.063000001 -0.01699999
0.80200005 -0.063000001 -0.01699999
0.80700004 -0.063000008 -0.01699999
0.8120001 -0.063000001 -0.01699999
0.81699997 -0.063000001 -0.01699999
0.82199997 -0.063000016 -0.01699999
0.82700002 -0.063000001 -0.01699999
0.83199996 -0.063000016 -0.01699999
0.83700001 -0.063000008 -0.01699999
0.84200001 -0.063000001 -0.01699999
0.84700006 -0.063000008 -0.01699999
0.852 -0.063000016 -0.01699999
0.85699999 -0.063000001 -0.01699999
0.86181825 -0.06309092 -0.0170909
0.86720008 -0.063199997 -0.017599991
0.87222224 -0.063111112 -0.017333323
0.87699997 -0.063000001 -0.01699999
0.88200003 -0.063000001 -0.01699999
0.88666677 -0.063000001 -0.017333323
0.89222229 -0.063111119 -0.017333323
0.89733332 -0.063000001 -0.017333323
0.90200001 -0.063000016 -0.01699999
0.90700001 -0.063000001 -0.01699999
0.912 -0.063000001 -0.01699999
0.917 -0.063000001 -0.015999988
0.92080003 -0.063199997 -0.017199989
0.40199998 -0.057999995 -0.018999994
0.40700004 -0.057999998 -0.018999994
0.412 -0.057999995 -0.018999994
0.41700006 -0.057999998 -0.018999994
0.42175001 -0.057875 -0.018874995
0.42724997 -0.057749998 -0.018499993
0.43211764 -0.057999998 -0.018941168
0.43700004 -0.057999998 -0.017999992
0.44212496 -0.057874992 -0.018874995
0.44700003 -0.057599999 -0.018799994
0.45179996 -0.057800002 -0.018199991
0.45699999 -0.057999998 -0.017999992
0.46200001 -0.057999995 -0.017999992
0.46700001 -0.057999998 -0.017999992
0.472 -0.057999995 -0.017999992
0.477 -0.057999998 -0.017999992
0.48199999 -0.057999995 -0.017999992
0.48699999 -0.057999998 -0.017999992
0.49200004 -0.057999995 -0.017999992
0.49700001 -0.057999998 -0.017999992
0.50199997 -0.057799995 -0.017799992
0.50699997 -0.057999998 -0.017999992
0.51200002 -0.057999995 -0.017999992
0.51700002 -0.057999998 -0.017999992
0.52200001 -0.057999995 -0.017999992
0.52714288 -0.058285713 -0.017714277
0.53200006 -0.057999995 -0.017999992
0.537 -0.057999998 -0.017999992
0.542 -0.057999995 -0.017999992
0.54699999 -0.057999998 -0.017999992
0.55230772 -0.057846148 -0.017384605
0.55720007 -0.057799995 -0.017199989
0.56200004 -0.057999995 -0.016999986
0.56699997 -0.057999998 -0.01699999
0.57211763 -0.058117643 -0.017058814
0.57700008 -0.057999998 -0.01699999
0.58175004 -0.057874992 -0.016874991
0.58700001 -0.057999998 -0.015999988
0.59230769 -0.057692304 -0.016615374
0.59690917 -0.057818178 -0.01690908
0.60179996 -0.057799995 -0.016199987
0.60699999 -0.057999998 -0.015999988
0.61200005 -0.057249997 -0.016249988
0.616 -0.056999996 -0.01699999
0.62333339 -0.057999998 -0.017333323
0.62700003 -0.060000002 -0.015999988
0.70666671 -0.059333336 -0.01866666
0.74257135 -0.057714283 -0.019999996
0.74666679 -0.057999995 -0.01866666
0.75199997 -0.057999995 -0.01699999
0.75699997 -0.057999998 -0.01699999
0.76211774 -0.057999995 -0.017058814
0.76699996 -0.057999995 -0.01699999
0.77200007 -0.057999995 -0.01699999
0.77700001 -0.057999998 -0.01699999
0.78200012 -0.057999995 -0.01699999
0.78700012 -0.057999987 -0.01699999
0.792 -0.057999995 -0.016999993
0.79700011 -0.057999998 -0.01699999
0.80200005 -0.057999995 -0.01699999
0.80699998 -0.057999998 -0.01699999
0.81200016 -0.057999995 -0.01699999
0.81699997 -0.057999998 -0.01699999
0.82200009 -0.057999995 -0.016999986
0.82700008 -0.057999995 -0.01699999
0.8319999 -0.057999995 -0.01699999
0.83700013 -0.057999998 -0.01699999
0.84200007 -0.058117643 -0.017058814
0.84680003 -0.058200002 -0.017199989
0.85200012 -0.057999995 -0.01699999
0.85699993 -0.057999987 -0.01699999
0.86169237 -0.058307685 -0.017384605
0.8670001 -0.057999998 -0.017999992
0.87199998 -0.057999995 -0.017999992
0.87714291 -0.057714283 -0.017714277
0.88199997 -0.058000002 -0.017199989
0.88700008 -0.057999998 -0.017199989
0.8925001 -0.057999998 -0.017499991
0.89714283 -0.057999998 -0.017714277
0.90224999 -0.057874992 -0.017124992
0.90700001 -0.057999987 -0.01699999
0.91174996 -0.058124997 -0.016874988
0.917 -0.057999998 -0.015999988
0.921 -0.057999998 -0.01699999
0.40199998 -0.052000001 -0.018999994
0.40700004 -0.052000005 -0.018999994
0.41200003 -0.052000001 -0.01899999
0.41700003 -0.052000012 -0.018999994
0.42199999 -0.052000009 -0.018999994
0.42690909 -0.051818188 -0.018909084
0.43211767 -0.051882356 -0.018941168
0.43709096 -0.051818188 -0.018909084
0.44200003 -0.052000009 -0.018999998
0.44700003 -0.052000005 -0.018999994
0.45200002 -0.052000001 -0.017999992
0.45700002 -0.052000005 -0.017999992
0.46200001 -0.052000005 -0.017999992
0.46700001 -0.052000005 -0.017999992
0.472 -0.052000012 -0.017999992
0.477 -0.052000005 -0.017999992
0.48200002 -0.052000005 -0.017999992
0.48699999 -0.052000005 -0.017999992
0.49200004 -0.052000005 -0.017999992
0.49700007 -0.052000005 -0.017999992
0.50200003 -0.052000005 -0.017999992
0.50699997 -0.052000005 -0.017999992
0.51199996 -0.052000005 -0.017999992
0.51700002 -0.052000005 -0.017999992
0.52200001 -0.052000005 -0.017999992
0.52700001 -0.052000005 -0.017999992
0.53200001 -0.052000005 -0.017999992
0.537 -0.052000005 -0.017999992
0.54200006 -0.052000005 -0.017999992
0.54699999 -0.052000005 -0.017999992
0.55236369 -0.051818192 -0.017636355
0.5570001 -0.052000005 -0.01699999
0.56200004 -0.052000001 -0.016999993
0.56690907 -0.051818192 -0.0170909
0.57211769 -0.051882356 -0.01705881
0.57700008 -0.052000001 -0.01699999
0.58199996 -0.052000001 -0.01699999
0.58699995 -0.052000012 -0.01699999
0.59200001 -0.052000001 -0.016999986
0.59700006 -0.052000005 -0.01699999
0.60175002 -0.05187501 -0.016874991
0.60719997 -0.051800005 -0.01679999
0.61185712 -0.051857147 -0.016714275
0.616 -0.052500006 -0.016499989
0.73750007 -0.051000006 -0.018499993
0.74220002 -0.051800005 -0.019599995
0.74709105 -0.052000001 -0.017454537
0.75199991 -0.052000005 -0.016999986
0.75699997 -0.052000005 -0.01699999
0.76200002 -0.052000005 -0.016999986
0.76699996 -0.052000005 -0.01699999
0.77200001 -0.052000005 -0.016999986
0.77699995 -0.052000001 -0.01699999
0.78200001 -0.052000005 -0.01699999
0.78700012 -0.052000005 -0.01699999
0.792 -0.052000009 -0.01699999
0.79699993 -0.052000001 -0.01699999
0.80200005 -0.052000001 -0.01699999
0.80699992 -0.052000005 -0.01699999
0.81200016 -0.052000005 -0.016999993
0.81699997 -0.052000005 -0.01699999
0.82200009 -0.052000005 -0.016999986
0.82700008 -0.052000005 -0.01699999
0.8319999 -0.052000005 -0.016999986
0.83700013 -0.052000005 -0.01699999
0.84187502 -0.051875006 -0.017124992
0.84700006 -0.052000005 -0.01699999
0.85200012 -0.052000005 -0.016999993
0.85699993 -0.052000005 -0.01699999
0.86183333 -0.051833335 -0.017499991
0.86714298 -0.051714294 -0.017714277
0.8720001 -0.051636375 -0.017636355
0.87700003 -0.052250005 -0.017499991
0.88200003 -0.052000005 -0.01699999
0.88709086 -0.051818192 -0.0170909
0.8918668 -0.051866673 -0.017199989
0.89719993 -0.051800001 -0.017199989
0.90200013 -0.052000005 -0.01699999
0.90700006 -0.052000005 -0.01699999
0.91175002 -0.052125007 -0.016874991
0.917 -0.052000005 -0.015999988
0.92142862 -0.051714294 -0.017428562
0.40199998 -0.047000002 -0.018999994
0.40700001 -0.047000006 -0.018999994
0.41199997 -0.047000002 -0.018999994
0.417 -0.047000006 -0.018999994
0.42199996 -0.047000006 -0.018999994
0.42699999 -0.047000006 -0.018999994
0.43200001 -0.047000006 -0.018999994
0.43700001 -0.047000006 -0.018999994
0.442 -0.047000006 -0.018999994
0.44666669 -0.047000006 -0.01866666
0.45200002 -0.047000006 -0.017999992
0.45699999 -0.047000006 -0.017999992
0.46200001 -0.047000006 -0.017999992
0.46700001 -0.047000006 -0.017999992
0.47200003 -0.047000006 -0.017999992
0.47700003 -0.047000006 -0.017999992
0.48200002 -0.047000006 -0.017999992
0.48700002 -0.047000006 -0.017999992
0.49199998 -0.047000006 -0.017999992
0.49700004 -0.047000006 -0.017999992
0.50200003 -0.047000006 -0.017999992
0.50700003 -0.047000006 -0.017999992
0.51200002 -0.047000006 -0.017999992
0.51700002 -0.047000006 -0.017999992
0.5222857 -0.046857148 -0.017714277
0.52666664 -0.047000006 -0.017333323
0.53200001 -0.047000006 -0.017999992
0.537 -0.047000006 -0.017999992
0.542 -0.047000006 -0.017999992
0.54699999 -0.047000006 -0.017999992
0.55250001 -0.047000006 -0.017499991
0.55700004 -0.047000006 -0.01699999
0.56200004 -0.047000006 -0.01699999
0.56700003 -0.047000006 -0.01699999
0.57200003 -0.047000006 -0.01699999
0.57700008 -0.047000006 -0.01699999
0.58200002 -0.047000006 -0.01699999
0.58700001 -0.047000006 -0.01699999
0.59200001 -0.047000006 -0.01699999
0.59700006 -0.047000006 -0.01699999
0.60200006 -0.047000002 -0.01699999
0.60699999 -0.047000006 -0.01699999
0.61160004 -0.047000006 -0.01679999
0.616 -0.047000006 -0.015999988
0.70800006 -0.046000004 -0.015999988
0.73800004 -0.048000008 -0.017999992
0.74279994 -0.047600009 -0.017999992
0.7470001 -0.047000006 -0.015999988
0.75199997 -0.047200006 -0.01679999
0.75699997 -0.047333341 -0.016666656
0.76239997 -0.047000006 -0.01679999
0.76700002 -0.047000006 -0.01699999
0.77200001 -0.047000002 -0.01699999
0.77700001 -0.047000006 -0.01699999
0.78200006 -0.047000002 -0.01699999
0.78700006 -0.047000006 -0.01699999
0.79200006 -0.047000002 -0.01699999
0.79700005 -0.047000006 -0.01699999
0.80200005 -0.047000002 -0.01699999
0.80700004 -0.047000006 -0.01699999
0.81200004 -0.047000006 -0.01699999
0.81699997 -0.047000006 -0.01699999
0.82200009 -0.047000002 -0.01699999
0.82700008 -0.047000006 -0.01699999
0.83200002 -0.047090914 -0.0170909
0.83700001 -0.047000006 -0.01699999
0.84200001 -0.047000006 -0.01699999
0.84714288 -0.046857148 -0.017142847
0.85200006 -0.047000002 -0.01699999
0.85699999 -0.047000006 -0.01699999
0.86155552 -0.046888895 -0.017333323
0.86714298 -0.046857148 -0.017142847
0.87180007 -0.046800006 -0.017199989
0.87685716 -0.047142863 -0.017142847
0.88218176 -0.047090914 -0.0170909
0.88700002 -0.047000006 -0.01699999
0.89200002 -0.047000002 -0.01699999
0.89699996 -0.047000006 -0.01699999
0.90181828 -0.047090914 -0.0170909
0.90700006 -0.047000006 -0.01699999
0.912 -0.047000006 -0.01699999
0.91699994 -0.047000006 -0.015999988
0.921 -0.047000006 -0.01699999
0.40200004 -0.042999998 -0.018999994
0.40700001 -0.042999998 -0.018999994
0.41200003 -0.042999998 -0.018999994
0.41700003 -0.042999998 -0.018999994
0.42200002 -0.042999998 -0.018999994
0.42699999 -0.042999998 -0.018999994
0.43200001 -0.042999998 -0.018999994
0.43700004 -0.042999998 -0.018999994
0.442 -0.042999998 -0.018999994
0.44679999 -0.043199997 -0.018399993
0.45171431 -0.04285714 -0.018285707
0.45700002 -0.042999998 -0.017999992
0.46199998 -0.042999998 -0.017999992
0.46700001 -0.042999998 -0.017999992
0.472 -0.042999998 -0.017999992
0.47700003 -0.042999998 -0.017999992
0.48199999 -0.042999998 -0.017999992
0.48699999 -0.042999998 -0.017999992
0.49200001 -0.042999998 -0.017999992
0.49700001 -0.042999998 -0.017999992
0.50200003 -0.042999998 -0.017999992
0.50700003 -0.042999998 -0.017999992
0.51200002 -0.042999998 -0.017999992
0.51700002 -0.042999998 -0.017999992
0.52200001 -0.042999998 -0.017999992
0.52679998 -0.043199997 -0.017599991
0.53200006 -0.042999998 -0.017999992
0.537 -0.042999998 -0.017999992
0.542 -0.042999998 -0.017999992
0.54699999 -0.042999998 -0.017999992
0.55228573 -0.04285714 -0.017714277
0.55700004 -0.042999998 -0.01699999
0.56200004 -0.042999998 -0.01699999
0.56700003 -0.042999998 -0.01699999
0.57200003 -0.042999998 -0.01699999
0.57700002 -0.042999998 -0.01699999
0.58200002 -0.043090906 -0.0170909
0.58700001 -0.042999998 -0.01699999
0.59200001 -0.042999998 -0.01699999
0.597 -0.042999998 -0.01699999
0.60199994 -0.042999998 -0.01699999
0.60699999 -0.042999998 -0.01699999
0.61150002 -0.042999998 -0.016499989
0.70800006 -0.044 -0.015999988
0.71000004 -0.044 -0.015999988
0.74300003 -0.042999998 -0.015999988
0.74700004 -0.042999998 -0.015999988
0.75200003 -0.042999998 -0.015999988
0.75699997 -0.042999998 -0.015999988
0.76218182 -0.042909089 -0.01690908
0.76700008 -0.042999998 -0.01699999
0.77200001 -0.042999998 -0.01699999
0.77699995 -0.042999998 -0.01699999
0.78200001 -0.042999998 -0.01699999
0.78700006 -0.042999998 -0.01699999
0.79200006 -0.042999998 -0.01699999
0.79700005 -0.042999998 -0.01699999
0.80200005 -0.042999998 -0.01699999
0.80700004 -0.042999998 -0.01699999
0.8120001 -0.042999998 -0.01699999
0.81699997 -0.042999998 -0.01699999
0.82200009 -0.042999998 -0.01699999
0.82700002 -0.042999998 -0.01699999
0.83200002 -0.042999998 -0.01699999
0.83700001 -0.042999998 -0.01699999
0.84200001 -0.042999998 -0.01699999
0.84700006 -0.042999998 -0.01699999
0.852 -0.042999998 -0.01699999
0.85699999 -0.042999998 -0.01699999
0.86199999 -0.042999998 -0.01699999
0.86700004 -0.042999998 -0.017999992
0.8722223 -0.043111108 -0.017333323
0.87714279 -0.04285714 -0.017142847
0.88181818 -0.043090906 -0.0170909
0.88714296 -0.04285714 -0.017142847
0.89180005 -0.042999998 -0.017199989
0.89680004 -0.043199997 -0.017599991
0.9017778 -0.043111108 -0.017333323
0.90700001 -0.042999998 -0.01699999
0.912 -0.042999998 -0.01699999
0.91699994 -0.042999998 -0.015999988
0.92200011 -0.042999998 -0.017999992
0.40200001 -0.037999995 -0.01899999
0.40700004 -0.037999999 -0.018999994
0.41200003 -0.037999995 -0.01899999
0.41700003 -0.037999999 -0.018999994
0.42199999 -0.037999995 -0.01899999
0.42700002 -0.037999999 -0.018999994
0.43200001 -0.037999995 -0.018999994
0.43700004 -0.037999999 -0.018999994
0.44200003 -0.037999995 -0.018999994
0.44688892 -0.037555557 -0.01866666
0.45199999 -0.037999999 -0.017999992
0.45700002 -0.037999999 -0.017999992
0.46200001 -0.037999999 -0.017999992
0.46700001 -0.037999999 -0.017999992
0.472 -0.037999999 -0.017999992
0.477 -0.037999999 -0.017999992
0.48200002 -0.037999999 -0.017999992
0.48699999 -0.037999999 -0.017999992
0.49200004 -0.037999999 -0.017999992
0.49700001 -0.037999999 -0.017999992
0.50200003 -0.037999999 -0.017999992
0.50700003 -0.037999999 -0.017999992
0.51200002 -0.037999999 -0.017999992
0.51700002 -0.037999999 -0.017999992
0.52200001 -0.037999999 -0.017999992
0.52700001 -0.037999999 -0.017999992
0.53200001 -0.037999999 -0.017999992
0.537 -0.037999999 -0.017999992
0.542 -0.037999999 -0.017999992
0.54699999 -0.037999999 -0.017999992
0.55246156 -0.037999995 -0.017384605
0.55700004 -0.037999999 -0.01699999
0.56111115 -0.038888883 -0.016666656
0.56700003 -0.039999992 -0.015999988
0.57249999 -0.039999992 -0.016499989
0.57714289 -0.039142847 -0.016857132
0.58149999 -0.037999999 -0.017499991
0.58700001 -0.038499996 -0.017499991
0.59211767 -0.03811764 -0.017058814
0.59700006 -0.037999999 -0.01699999
0.60200006 -0.037999999 -0.016999986
0.60688889 -0.038444441 -0.016666656
0.611 -0.037999999 -0.015999988
0.616 -0.039999992 -0.015999988
0.69800001 -0.036000013 -0.015999988
0.70200002 -0.038499996 -0.015999988
0.71800005 -0.037 -0.015999988
0.72257143 -0.037714284 -0.016857132
0.72666669 -0.037333328 -0.015999988
0.73000002 -0.037999988 -0.015999988
0.74233335 -0.038666662 -0.015999988
0.74700004 -0.037999999 -0.015999988
0.75199997 -0.037999999 -0.015999988
0.75711113 -0.037555557 -0.016666656
0.76200008 -0.037999995 -0.01699999
0.76699996 -0.037999999 -0.01699999
0.77200007 -0.037999995 -0.016999986
0.77699995 -0.037999999 -0.01699999
0.78200012 -0.037999999 -0.016999986
0.78700012 -0.037999999 -0.01699999
0.792 -0.037999995 -0.016999986
0.79699993 -0.037999999 -0.01699999
0.80200005 -0.037999995 -0.016999993
0.80699992 -0.037999999 -0.01699999
0.81200016 -0.037999995 -0.01699999
0.81699997 -0.037999999 -0.01699999
0.82211769 -0.037999995 -0.01705881
0.82700008 -0.037999999 -0.01699999
0.83199996 -0.037999999 -0.016999993
0.83700013 -0.037999999 -0.01699999
0.84230769 -0.038307689 -0.017384605
0.84700012 -0.038399994 -0.017199989
0.85188246 -0.037999999 -0.017058814
0.85709089 -0.037999999 -0.0170909
0.86200005 -0.037866663 -0.017199989
0.8670001 -0.037999999 -0.017999992
0.87230772 -0.038307689 -0.017384605
0.87700003 -0.037999999 -0.01699999
0.88200003 -0.037999995 -0.017124992
0.88725007 -0.037749998 -0.017499991
0.89181823 -0.038181815 -0.017636355
0.89700001 -0.037999999 -0.017999992
0.90250009 -0.037999999 -0.017499991
0.90700006 -0.037999999 -0.01699999
0.912 -0.037999995 -0.016999986
0.917 -0.037999999 -0.015999988
0.92175007 -0.037999999 -0.017749991
0.40200004 -0.033000007 -0.018999994
0.40700001 -0.033000007 -0.018999994
0.41200003 -0.033000007 -0.018999994
0.417 -0.033000007 -0.018999994
0.42200002 -0.033000007 -0.018999994
0.42699999 -0.033000007 -0.018999994
0.43200001 -0.033000007 -0.018999994
0.43700001 -0.033000007 -0.018999994
0.44200003 -0.033000007 -0.018999994
0.44700003 -0.033000007 -0.018999994
0.45200002 -0.033000007 -0.017999992
0.45699999 -0.033000007 -0.017999992
0.46200004 -0.033000007 -0.017999992
0.46700001 -0.033000007 -0.017999992
0.472 -0.033000007 -0.017999992
0.477 -0.033000007 -0.017999992
0.48200002 -0.033000007 -0.017999992
0.48699999 -0.033000007 -0.017999992
0.49200001 -0.033000007 -0.017999992
0.49700001 -0.033000007 -0.017999992
0.50200003 -0.033000007 -0.017999992
0.50700003 -0.033000007 -0.017999992
0.51200002 -0.033000007 -0.017999992
0.51700002 -0.033000007 -0.017999992
0.52200001 -0.033000007 -0.017999992
0.52700001 -0.033000007 -0.017999992
0.53200006 -0.033000007 -0.017999992
0.537 -0.033000007 -0.017999992
0.542 -0.033000007 -0.017999992
0.54699999 -0.033000007 -0.017999992
0.55244446 -0.032888897 -0.017333323
0.55700004 -0.033000007 -0.01699999
0.56 -0.034000009 -0.015999988
0.58228576 -0.03285715 -0.017714277
0.58700001 -0.033000007 -0.01866666
0.59200001 -0.032666672 -0.01866666
0.59720004 -0.033200007 -0.017599991
0.60181814 -0.033090916 -0.01690908
0.60666662 -0.033333343 -0.015999988
0.69800001 -0.032000005 -0.015999988
0.70000005 -0.033000007 -0.015999988
0.71800005 -0.032000005 -0.015999988
0.72240001 -0.033200007 -0.015999988
0.72600001 -0.034000009 -0.015999988
0.74333334 -0.032666672 -0.015999988
0.74700004 -0.033000007 -0.015999988
0.75244445 -0.032888897 -0.016666656
0.75700003 -0.033000007 -0.01699999
0.76200008 -0.033000007 -0.01699999
0.76700008 -0.033000007 -0.01699999
0.77200001 -0.033000007 -0.01699999
0.77700001 -0.033000007 -0.01699999
0.78200006 -0.033000007 -0.01699999
0.78700006 -0.033000007 -0.01699999
0.792 -0.033000007 -0.01699999
0.79700005 -0.033000007 -0.01699999
0.80200005 -0.033000007 -0.01699999
0.80700004 -0.033000007 -0.01699999
0.8120001 -0.033000007 -0.01699999
0.81699997 -0.033000007 -0.01699999
0.82181829 -0.033090916 -0.0170909
0.82700008 -0.033000007 -0.01699999
0.83200002 -0.033000007 -0.01699999
0.83700001 -0.033000007 -0.01699999
0.84222221 -0.032888897 -0.017333323
0.84700006 -0.033000007 -0.01699999
0.85218185 -0.033090916 -0.0170909
0.85714287 -0.033142865 -0.017142847
0.86181813 -0.032909099 -0.0170909
0.86720008 -0.032800008 -0.017599991
0.87200004 -0.033000007 -0.017999992
0.87685716 -0.03285715 -0.017142847
0.88200009 -0.033000007 -0.017199989
0.88700002 -0.033000007 -0.017999992
0.89200002 -0.033000007 -0.017999992
0.89700001 -0.033000007 -0.017999992
0.90244454 -0.032888897 -0.017333323
0.90714294 -0.033142865 -0.017142847
0.912 -0.033000007 -0.01699999
0.91699994 -0.033000007 -0.015999988
0.92199999 -0.033000007 -0.017999992
0.40200004 -0.027999997 -0.018999994
0.40700004 -0.027999997 -0.018999994
0.41200003 -0.027999997 -0.018999994
0.41700006 -0.027999997 -0.018999994
0.42199996 -0.027999997 -0.018999994
0.42700005 -0.027999997 -0.018999994
0.43200001 -0.027999997 -0.01899999
0.43700004 -0.027999997 -0.018999994
0.44200003 -0.027999997 -0.018999998
0.44700003 -0.027999997 -0.018999994
0.45180002 -0.027799997 -0.018199991
0.45699999 -0.027999997 -0.017999992
0.46200001 -0.027999997 -0.017999992
0.46700001 -0.027999997 -0.017999992
0.4718 -0.027799997 -0.018199991
0.477 -0.027999997 -0.017999992
0.48200002 -0.027999997 -0.017999992
0.48699999 -0.027999997 -0.017999992
0.49200004 -0.027999997 -0.017999992
0.49699998 -0.027999997 -0.017999992
0.50199997 -0.027999997 -0.017999992
0.50700003 -0.027999997 -0.017999992
0.51200002 -0.027999997 -0.017999992
0.51700002 -0.027999997 -0.017999992
0.52200001 -0.027999997 -0.017999992
0.5268572 -0.027714282 -0.017714277
0.53200001 -0.027999997 -0.017999992
0.537 -0.027999997 -0.017999992
0.54200006 -0.027999997 -0.017999992
0.54699999 -0.027999997 -0.017999992
0.55239999 -0.027999997 -0.017199989
0.5570001 -0.027999997 -0.01699999
0.56 -0.026999995 -0.015999988
0.58320004 -0.028399998 -0.018799994
0.58700001 -0.028199997 -0.018799994
0.59200001 -0.027999997 -0.01899999
0.59700006 -0.027999997 -0.018999994
0.60159999 -0.027999997 -0.01679999
0.60600001 -0.027999997 -0.015999988
0.69400001 -0.025999993 -0.01699999
0.69700003 -0.027333329 -0.016666656
0.70175004 -0.027749997 -0.015999988
0.70700002 -0.026999995 -0.015999988
0.71233338 -0.027333329 -0.015999988
0.71700001 -0.027999997 -0.015999988
0.722 -0.027799997 -0.016199987
0.72680008 -0.027599996 -0.015999988
0.73000002 -0.025999993 -0.015999988
0.73699999 -0.026999995 -0.015999988
0.74200004 -0.027999997 -0.015999988
0.74700004 -0.027999997 -0.015999988
0.75211757 -0.027882351 -0.016941169
0.75699997 -0.027999997 -0.01699999
0.76200008 -0.027999997 -0.01699999
0.76699996 -0.027999997 -0.01699999
0.77188236 -0.027882351 -0.017058814
0.77699995 -0.027999997 -0.01699999
0.78200001 -0.027999997 -0.016999993
0.78700012 -0.027999997 -0.01699999
0.79200006 -0.027999997 -0.016999986
0.79700011 -0.027999997 -0.01699999
0.80200005 -0.027999997 -0.016999993
0.80699992 -0.027999997 -0.01699999
0.81200016 -0.027999997 -0.016999986
0.81699997 -0.027999997 -0.01699999
0.82200003 -0.027999997 -0.01699999
0.82700008 -0.027999997 -0.01699999
0.83199996 -0.027999997 -0.01699999
0.83700013 -0.027999997 -0.01699999
0.84200001 -0.028124997 -0.017124988
0.84700012 -0.027999997 -0.01699999
0.85213345 -0.027999997 -0.017199989
0.85699993 -0.027999997 -0.01699999
0.86214286 -0.028428569 -0.017285705
0.8670001 -0.028249998 -0.017499991
0.87240016 -0.027999997 -0.017199989
0.87700003 -0.027999997 -0.01699999
0.88200003 -0.027882351 -0.017058814
0.88700008 -0.027599996 -0.017199989
0.89180005 -0.028199997 -0.017799992
0.89700001 -0.027999997 -0.017999992
0.90230781 -0.028307689 -0.017384605
0.90700006 -0.027999997 -0.01699999
0.912 -0.027999997 -0.016999986
0.917 -0.027999997 -0.015999988
0.92175007 -0.028249998 -0.017749991
0.40199998 -0.021999994 -0.018999998
0.40700006 -0.021999994 -0.018999994
0.41200003 -0.021999994 -0.018999994
0.41700003 -0.021999994 -0.018999994
0.42199996 -0.021999994 -0.018999998
0.42700002 -0.021999994 -0.018999994
0.43200001 -0.021999994 -0.018999994
0.43700004 -0.021999994 -0.018999994
0.442 -0.021999994 -0.018999994
0.44690913 -0.022181811 -0.018909084
0.45180002 -0.022199994 -0.018199991
0.45699999 -0.021999994 -0.017999992
0.46200001 -0.021999994 -0.017999992
0.46700001 -0.021999994 -0.017999992
0.472 -0.021999994 -0.017999992
0.477 -0.021999994 -0.017999992
0.48199999 -0.021999994 -0.017999992
0.48699999 -0.021999994 -0.017999992
0.49200004 -0.021999994 -0.017999992
0.49700007 -0.021999994 -0.017999992
0.50199997 -0.021999994 -0.017999992
0.50700003 -0.021999994 -0.017999992
0.51199996 -0.021999994 -0.017999992
0.51700002 -0.021999994 -0.017999992
0.52199996 -0.021999994 -0.017999992
0.52700001 -0.021999994 -0.017999992
0.53200001 -0.021999994 -0.017999992
0.537 -0.021999994 -0.017999992
0.54200006 -0.021999994 -0.017999992
0.54699999 -0.021999994 -0.017999992
0.55239999 -0.021999994 -0.017199989
0.5570001 -0.021999994 -0.01699999
0.56 -0.021999994 -0.015999988
0.58733338 -0.02233333 -0.019333327
0.59213334 -0.02226666 -0.01906666
0.59700006 -0.021999994 -0.018999994
0.60211766 -0.022117641 -0.01705881
0.60700005 -0.021999994 -0.015999988
0.61000001 -0.022999987 -0.01699999
0.69700003 -0.022199994 -0.01699999
0.70181817 -0.021636361 -0.016363624
0.7068572 -0.021999994 -0.016285703
0.71219999 -0.021799996 -0.016199987
0.71700007 -0.021499999 -0.016499989
0.72211772 -0.021882348 -0.016941169
0.7268889 -0.021555552 -0.016666656
0.73200005 -0.021499999 -0.016499989
0.73711109 -0.021555552 -0.016666656
0.74213332 -0.021733331 -0.01679999
0.74700016 -0.021999994 -0.01699999
0.75199997 -0.021999994 -0.01699999
0.75699997 -0.021999994 -0.01699999
0.76200008 -0.021999994 -0.016999986
0.76700002 -0.021999994 -0.01699999
0.77200007 -0.021999994 -0.016999993
0.77700001 -0.021999994 -0.01699999
0.78200001 -0.021999994 -0.016999993
0.78700012 -0.021999994 -0.01699999
0.792 -0.021999994 -0.01699999
0.79699999 -0.021999994 -0.01699999
0.80200005 -0.021999994 -0.016999986
0.80699992 -0.021999994 -0.01699999
0.8120001 -0.021999994 -0.01699999
0.81699997 -0.021999994 -0.01699999
0.82200009 -0.021999994 -0.01699999
0.82700008 -0.021999994 -0.01699999
0.83199996 -0.021999996 -0.01705881
0.83714283 -0.022285709 -0.017714277
0.84169233 -0.022153841 -0.017384605
0.84720004 -0.021999994 -0.017199989
0.85181814 -0.022363631 -0.017636355
0.85709089 -0.022181811 -0.0170909
0.86183339 -0.021999994 -0.017499991
0.8670001 -0.021999994 -0.017999992
0.87214291 -0.022285709 -0.017285705
0.87680006 -0.021799996 -0.017199989
0.88187504 -0.022249993 -0.017124988
0.88700008 -0.022499993 -0.017499991
0.89200002 -0.022499993 -0.017499991
0.89700001 -0.021999994 -0.017999992
0.90220004 -0.022199994 -0.017799992
0.90709096 -0.021999996 -0.0170909
0.91199994 -0.021999994 -0.016999986
0.91666657 -0.021999994 -0.016666656
0.92075002 -0.021749996 -0.017499991
0.40199998 -0.017000005 -0.018999994
0.40700001 -0.017000005 -0.018999994
0.41199997 -0.017000005 -0.018999994
0.41700003 -0.017000005 -0.018999994
0.42199996 -0.017000005 -0.018999994
0.42699999 -0.017000005 -0.018999994
0.43199995 -0.017000005 -0.018999994
0.43700004 -0.017000005 -0.018999994
0.442 -0.017000005 -0.018999994
0.44685715 -0.016857147 -0.018857136
0.45199999 -0.017000005 -0.017999992
0.45699999 -0.017000005 -0.017999992
0.46200001 -0.017000005 -0.017999992
0.46700001 -0.017000005 -0.017999992
0.472 -0.017000005 -0.017999992
0.477 -0.017000005 -0.017999992
0.48200002 -0.017000005 -0.017999992
0.48699999 -0.017000005 -0.017999992
0.49200001 -0.017000005 -0.017999992
0.49700004 -0.017000005 -0.017999992
0.50200003 -0.017000005 -0.017999992
0.50700003 -0.017000005 -0.017999992
0.51200002 -0.017000005 -0.017999992
0.51700002 -0.017000005 -0.017999992
0.52200001 -0.017000005 -0.017999992
0.52700001 -0.017000005 -0.017999992
0.53200006 -0.017000005 -0.017999992
0.537 -0.017000005 -0.017999992
0.54200006 -0.017000005 -0.017999992
0.54699999 -0.017000005 -0.017999992
0.55218184 -0.016909095 -0.0170909
0.55700004 -0.017000005 -0.01699999
0.56099999 -0.017000005 -0.015999988
0.56999999 -0.018000007 -0.017999992
0.588 -0.017000005 -0.018999994
0.59233332 -0.016666671 -0.018999994
0.597 -0.017333338 -0.01866666
0.60177779 -0.017111115 -0.018222215
0.60666668 -0.017000005 -0.01699999
0.69688892 -0.017111115 -0.01866666
0.7017144 -0.017000005 -0.017428562
0.70700002 -0.017000005 -0.01699999
0.71199995 -0.017000005 -0.01699999
0.71700001 -0.017000005 -0.01699999
0.72200006 -0.017000005 -0.01699999
0.72685719 -0.017142862 -0.017142847
0.73200005 -0.017000005 -0.01699999
0.73699999 -0.017000005 -0.01699999
0.74200004 -0.017000005 -0.01699999
0.7470001 -0.017000005 -0.01699999
0.75200003 -0.017000005 -0.01699999
0.75699997 -0.017000005 -0.01699999
0.76200002 -0.017000005 -0.01699999
0.76700008 -0.017000005 -0.01699999
0.77200001 -0.017000005 -0.01699999
0.77666664 -0.017000005 -0.017333323
0.78220004 -0.017000005 -0.017199989
0.78714287 -0.017142862 -0.017142847
0.79200006 -0.017000005 -0.01699999
0.79699999 -0.017000005 -0.01699999
0.80199999 -0.017000005 -0.01699999
0.80700004 -0.017000005 -0.01699999
0.8120001 -0.017000005 -0.01699999
0.81699997 -0.017000005 -0.01699999
0.82200003 -0.017000005 -0.01699999
0.82700008 -0.017000005 -0.01699999
0.83200002 -0.017000005 -0.01699999
0.83733338 -0.017000005 -0.017333323
0.84200001 -0.016857147 -0.017714277
0.847 -0.017000005 -0.017999992
0.85224998 -0.017000005 -0.017499991
0.85700005 -0.017000005 -0.017333323
0.86199999 -0.016800005 -0.017199989
0.8670001 -0.017000005 -0.017999992
0.87250006 -0.017000005 -0.017499991
0.87699991 -0.017000005 -0.01699999
0.88200009 -0.017250005 -0.017499991
0.88700002 -0.017000005 -0.017999992
0.89200002 -0.017000005 -0.017999992
0.89700001 -0.017000005 -0.017999992
0.90200001 -0.017000005 -0.017999992
0.90700006 -0.017000005 -0.01699999
0.91200012 -0.017000005 -0.01699999
0.91666669 -0.017000005 -0.016666656
0.92171431 -0.017142862 -0.017999992
0.40200004 -0.012999997 -0.018999994
0.40700001 -0.012999997 -0.018999994
0.41200003 -0.012999997 -0.018999994
0.417 -0.012999997 -0.018999994
0.42200002 -0.012999997 -0.018999994
0.42699999 -0.012999997 -0.018999994
0.43200004 -0.012999997 -0.018999994
0.43700004 -0.012999997 -0.018999994
0.442 -0.012999997 -0.018999994
0.447 -0.012999997 -0.018999994
0.45200002 -0.012999997 -0.017999992
0.45699999 -0.012999997 -0.017999992
0.46200001 -0.012999997 -0.017999992
0.46700001 -0.012999997 -0.017999992
0.472 -0.012999997 -0.017999992
0.477 -0.012999997 -0.017999992
0.48200002 -0.012999997 -0.017999992
0.48700002 -0.012999997 -0.017999992
0.49200001 -0.012999997 -0.017999992
0.49700001 -0.012999997 -0.017999992
0.50200003 -0.012999997 -0.017999992
0.50700003 -0.012999997 -0.017999992
0.51200002 -0.012999997 -0.017999992
0.51700002 -0.012999997 -0.017999992
0.52200001 -0.012999997 -0.017999992
0.52700001 -0.012999997 -0.017999992
0.53200001 -0.012999997 -0.017999992
0.537 -0.012999997 -0.017999992
0.542 -0.012999997 -0.017999992
0.54699999 -0.012999997 -0.017999992
0.5524444 -0.013111108 -0.017333323
0.55700004 -0.012999997 -0.01699999
0.56079996 -0.013199997 -0.016399989
0.58399999 -0.011999995 -0.017999992
0.58720005 -0.012399996 -0.017199989
0.59200001 -0.012999997 -0.017333323
0.59733337 -0.012999997 -0.01866666
0.602 -0.012909087 -0.01818181
0.60600001 -0.013999999 -0.01699999
0.69700003 -0.012999997 -0.018999994
0.70214278 -0.013142854 -0.018571422
0.70700002 -0.012999997 -0.017999992
0.71218181 -0.012909087 -0.017818173
0.71714288 -0.013142854 -0.017142847
0.722 -0.013333331 -0.017333323
0.727 -0.012999997 -0.017999992
0.73220003 -0.012799996 -0.018399993
0.73720008 -0.013199997 -0.017599991
0.74171436 -0.013142854 -0.017714277
0.7470001 -0.012999997 -0.017999992
0.75225002 -0.013249997 -0.017499991
0.75699997 -0.012999997 -0.01699999
0.76200002 -0.012999997 -0.01699999
0.76700008 -0.012999997 -0.01699999
0.77179998 -0.013199997 -0.017199989
0.77700001 -0.012999997 -0.017333323
0.78200006 -0.012999997 -0.017499991
0.787 -0.012999997 -0.017333323
0.79200006 -0.013333331 -0.017333323
0.79699999 -0.012999997 -0.017333323
0.80200005 -0.013111108 -0.017333323
0.80714285 -0.013142854 -0.017142847
0.8120001 -0.012999997 -0.01699999
0.81699997 -0.012999997 -0.01699999
0.82218188 -0.013090906 -0.0170909
0.82700008 -0.012999997 -0.01699999
0.83181816 -0.013090906 -0.0170909
0.83700007 -0.013333331 -0.017333323
0.84200001 -0.012999997 -0.017999992
0.84720004 -0.013199997 -0.017599991
0.8522858 -0.013142854 -0.017714277
0.85720003 -0.013199997 -0.017599991
0.86199999 -0.013142854 -0.017714277
0.8670001 -0.012999997 -0.017999992
0.87200004 -0.012999997 -0.017999992
0.87699997 -0.012999997 -0.017999992
0.88199997 -0.012999997 -0.017999992
0.88679999 -0.013199997 -0.017599991
0.89200002 -0.012999997 -0.017999992
0.89700001 -0.012999997 -0.017999992
0.9022857 -0.013142854 -0.017714277
0.90733337 -0.012999997 -0.017333323
0.912 -0.012999997 -0.01699999
0.91666657 -0.012999997 -0.016666656
0.92080003 -0.013199997 -0.017199989
0.40200001 -0.0079999967 -0.01899999
0.40700004 -0.0079999967 -0.018999994
0.41200003 -0.0079999967 -0.01899999
0.41699997 -0.0079999967 -0.018999994
0.42199996 -0.0079999967 -0.018999994
0.42700002 -0.0079999967 -0.018999994
0.43200001 -0.0079999967 -0.01899999
0.43700001 -0.0079999967 -0.018999994
0.442 -0.0079999967 -0.01899999
0.447 -0.0079999967 -0.018999994
0.45180002 -0.0077999979 -0.018199991
0.45700002 -0.0079999967 -0.017999992
0.46200004 -0.0081999954 -0.018199991
0.46711111 -0.0075555542 -0.01866666
0.47200006 -0.0079999967 -0.017999992
0.477 -0.0079999967 -0.017999992
0.48200002 -0.0079999967 -0.017999992
0.48699999 -0.0079999967 -0.017999992
0.49200004 -0.0079999967 -0.017999992
0.49699998 -0.0079999967 -0.017999992
0.50200003 -0.0079999967 -0.017999992
0.50700003 -0.0079999967 -0.017999992
0.51199996 -0.0079999967 -0.017999992
0.51700002 -0.0079999967 -0.017999992
0.52200001 -0.0079999967 -0.017999992
0.52700001 -0.0079999967 -0.017999992
0.53200006 -0.0079999967 -0.017999992
0.537 -0.0079999967 -0.017999992
0.542 -0.0079999967 -0.017999992
0.54699999 -0.0079999967 -0.017999992
0.55246156 -0.0079999957 -0.017384605
0.5570001 -0.0079999967 -0.01699999
0.56149995 -0.0079999967 -0.016499989
0.56700003 -0.0089999884 -0.015999988
0.56999999 -0.0079999967 -0.015999988
0.57800001 -0.0069999993 -0.01699999
0.5828889 -0.0075555542 -0.0171111
0.58700001 -0.0082499944 -0.016499989
0.59180003 -0.0081999954 -0.016399989
0.59714288 -0.0082857097 -0.017999992
0.60228568 -0.0079999967 -0.017571419
0.69400001 -0.0079999864 -0.019999996
0.69700003 -0.0079999967 -0.018999994
0.70211768 -0.0081176423 -0.01905882
0.70700002 -0.0079999967 -0.018999994
0.71199995 -0.0079999967 -0.018999994
0.71700001 -0.0079999967 -0.018999994
0.72200006 -0.0079999967 -0.018999994
0.7270909 -0.0081818132 -0.019090904
0.73200011 -0.0079999967 -0.01899999
0.73699999 -0.0079999967 -0.018999994
0.74211758 -0.0079999967 -0.018941171
0.7470001 -0.0075999973 -0.018799994
0.75186664 -0.0077333311 -0.018799992
0.75688887 -0.0075555542 -0.01866666
0.7622 -0.0081999954 -0.017799992
0.76685715 -0.0082857097 -0.017714277
0.77200001 -0.0079999967 -0.017999992
0.77700001 -0.0079999967 -0.017999992
0.78200006 -0.0079999967 -0.017999992
0.787 -0.0079999967 -0.017999992
0.79200006 -0.0079999967 -0.017999992
0.79699999 -0.0082499944 -0.017499991
0.80220002 -0.0079999957 -0.017799992
0.8070001 -0.0079999967 -0.017999992
0.81181818 -0.0083636316 -0.017636355
0.81685716 -0.0082857097 -0.017714277
0.82218188 -0.0083636316 -0.017636355
0.82700002 -0.0083999932 -0.017199989
0.83185709 -0.0081428522 -0.017285705
0.83700007 -0.0079999967 -0.017999992
0.84200007 -0.0079999967 -0.017999992
0.84700006 -0.0079999967 -0.017999992
0.85200006 -0.0079999967 -0.017999992
0.85700005 -0.0079999967 -0.017999992
0.86200005 -0.0079999967 -0.017999992
0.8670001 -0.0079999967 -0.017999992
0.87220001 -0.0077999979 -0.018199991
0.87699991 -0.0079999967 -0.017999992
0.88180006 -0.0079999957 -0.017799992
0.88714284 -0.0077142841 -0.018285707
0.89218181 -0.0076363627 -0.018363629
0.89685714 -0.0077142841 -0.018285707
0.90200001 -0.0079999967 -0.017999992
0.90709096 -0.0078181783 -0.0170909
0.912 -0.0079999967 -0.01699999
0.91666669 -0.0079999967 -0.016666656
0.92142856 -0.0074285693 -0.017999992
0.40199998 -0.0030000061 -0.018999994
0.40700001 -0.0030000061 -0.018999994
0.41200003 -0.0030000061 -0.018999994
0.41700003 -0.0030000061 -0.018999994
0.42200002 -0.0030000061 -0.018999994
0.42699999 -0.0030000061 -0.018999994
0.43200001 -0.0030000061 -0.018999994
0.43700001 -0.0030000061 -0.018999994
0.442 -0.0030000061 -0.018999994
0.447 -0.0030000061 -0.018999994
0.45160002 -0.0030000061 -0.018799994
0.45700002 -0.0030000061 -0.017999992
0.46220002 -0.0028000057 -0.018799994
0.46700001 -0.0030000061 -0.018999994
0.47155556 -0.0028888946 -0.01866666
0.477 -0.0030000061 -0.017999992
0.48200002 -0.0030000061 -0.017999992
0.48699999 -0.0030000061 -0.017999992
0.49219999 -0.0028000057 -0.018799994
0.4966667 -0.0030000061 -0.01866666
0.50200003 -0.0030000061 -0.017999992
0.50700003 -0.0030000061 -0.017999992
0.51200002 -0.0030000061 -0.017999992
0.51700002 -0.0030000061 -0.017999992
0.52200001 -0.0030000061 -0.017999992
0.52700001 -0.0030000061 -0.017999992
0.53200001 -0.0030000061 -0.017999992
0.537 -0.0030000061 -0.017999992
0.542 -0.0030000061 -0.017999992
0.54699999 -0.0030000061 -0.017999992
0.55200005 -0.0030000061 -0.017999992
0.55700004 -0.0030000061 -0.01699999
0.56155556 -0.0028888946 -0.016666656
0.56666666 -0.002666672 -0.015999988
0.57200003 -0.0025000051 -0.015999988
0.57700002 -0.0030000061 -0.015999988
0.58200002 -0.0030000061 -0.015999988
0.58700001 -0.0030000061 -0.015999988
0.59200001 -0.0030000061 -0.015999988
0.59760004 -0.0028000057 -0.01679999
0.602 -0.0030000061 -0.017499991
0.69679993 -0.0032000064 -0.019599995
0.70199996 -0.0030000061 -0.019999996
0.70733339 -0.0030000061 -0.019333327
0.71199995 -0.0030000061 -0.018999994
0.7166667 -0.0030000061 -0.019333327
0.72228569 -0.0031428635 -0.019714281
0.727 -0.0030000061 -0.019999996
0.73200005 -0.0030000061 -0.018999994
0.73700005 -0.0030000061 -0.018999994
0.74199992 -0.0030000061 -0.018999994
0.7470001 -0.0030000061 -0.018999994
0.75200003 -0.0030000061 -0.018999994
0.75700003 -0.0030000061 -0.018999994
0.7615 -0.0030000061 -0.018499993
0.76700002 -0.0030000061 -0.017999992
0.77200001 -0.0030000061 -0.017999992
0.77699995 -0.0030000061 -0.017999992
0.78200006 -0.0030000061 -0.017999992
0.78700006 -0.0030000061 -0.017999992
0.79200006 -0.0030000061 -0.017999992
0.79700005 -0.0030000061 -0.017999992
0.80199999 -0.0030000061 -0.017999992
0.80700004 -0.0030000061 -0.017999992
0.81200004 -0.0030000061 -0.017999992
0.81700003 -0.0030000061 -0.017999992
0.82200003 -0.0030000061 -0.017999992
