# .PCD v0.7 - Point Cloud Data file format
VERSION 0.7
FIELDS x y z
SIZE 4 4 4
TYPE F F F
COUNT 1 1 1
WIDTH 1282
HEIGHT 1
VIEWPOINT 0 0 0 1 0 0 0
POINTS 1282
DATA ascii
0.390331358 0.466830462 0.793543458
0.456952751 0.401912123 0.793511987
0.435805827 0.442544609 0.78372699
0.427496076 0.480895549 0.765497923
0.452935994 0.470511079 0.757277191
0.525494397 0.554645181 0.645154953
0.463014156 0.5414536 0.701745331
0.376554996 0.775723696 0.506418347
0.466181397 0.691024423 0.552413523
-0.446482509 0.867123961 0.220793352
0.104418874 0.9728176 0.206695139
0.432600379 -0.119883895 0.893580019
0.508087039 -0.0829705894 0.857300401
0.430588752 -0.0498029962 0.901173353
0.502496362 -0.00686773937 0.864552319
0.556507945 -0.0879350975 0.826176107
0.437228978 0.0118110804 0.899272978
0.505569577 0.0137270261 0.862676978
0.518741071 0.0224357191 0.854637206
0.457853019 0.104342081 0.882883906
0.514548242 0.10217195 0.851352751
0.468095511 0.176669538 0.865837753
0.512221396 0.1642095 0.843009591
0.320454568 0.280449957 0.904796779
0.432461679 0.252160758 0.865674496
0.538657069 0.232893988 0.809697092
0.315973461 0.303864062 0.898792386
0.263706595 0.317972213 0.910688162
0.337323695 0.342136681 0.877015293
0.398176491 0.302229702 0.866090715
0.341330081 0.23897469 0.909057438
0.333104968 0.317258716 0.887912452
0.30825159 0.319478929 0.896055043
0.348419219 0.30495137 0.886346042
0.400355935 0.267017186 0.876594245
0.373642355 0.294131488 0.87970376
0.32648629 0.368381321 0.870461047
0.410195798 0.294376135 0.86318171
0.439049661 0.336718172 0.832980633
0.414016098 0.368939012 0.832150936
0.409338534 0.333784521 0.84913516
0.418007582 0.387465924 0.821669281
0.482171535 0.402430266 0.778177977
0.491088599 0.362349272 0.792171478
0.448282331 0.387337178 0.805613697
0.48798275 0.432467997 0.758185208
0.489796489 0.441060513 0.752040923
0.5350492 0.458143353 0.709808171
0.327450842 0.816113293 0.476167381
0.380536765 0.732028067 0.565090477
0.436428159 0.655538738 0.616279125
0.279441833 0.891803861 0.355807036
0.406240851 -0.342672795 0.847079813
0.210196137 -0.356853187 0.910205305
0.17333205 -0.449020952 0.876548171
0.232536629 -0.366691798 0.900813162
0.363229424 -0.37679252 0.852110445
0.268614292 -0.252453536 0.929577351
0.371230096 -0.201957121 0.906312287
0.433527023 -0.144627944 0.889459193
0.436702102 -0.0761208087 0.896380126
0.392190725 -0.0648033619 0.917598724
0.43467778 -0.0372679271 0.899814904
0.431255847 -0.000628798851 0.902229786
0.385034651 0.0411212035 0.921985805
0.457772106 0.0305783413 0.888543844
0.415504903 0.02126012 0.909342766
0.379310966 0.141724139 0.914351106
0.426605821 0.111940704 0.897483885
0.398057997 0.0895683765 0.912977397
0.335383356 0.289179265 0.89660126
0.349808425 0.279803336 0.894060791
0.368302643 0.201298773 0.907652199
0.424118042 0.17152223 0.889215708
0.318774372 0.318451971 0.892732739
0.335438848 0.318414778 0.886619031
0.312286615 0.323966384 0.89304167
0.280347586 0.256869376 0.924891233
0.387056917 0.242889345 0.88948983
0.365775645 0.2889359 0.884717345
0.336986244 0.306280553 0.890299439
0.268395245 0.289067328 0.918914855
0.389190525 0.214071229 0.89593792
0.40328598 0.227907851 0.886238635
0.344590068 0.242011786 0.907021701
0.392515391 0.201469451 0.897408664
0.410423607 0.223191634 0.884159803
0.380178511 0.200154126 0.902996719
0.408713043 0.27978304 0.868720651
0.398402721 0.270857006 0.876305997
0.365584552 0.270208955 0.890693843
0.56727922 0.270056218 0.77798748
0.447687209 0.257668734 0.856261373
0.41189748 0.31169942 0.856261969
0.515636146 0.356846184 0.778961241
0.497476131 0.313426495 0.808876812
0.526950777 0.474639028 0.705011427
0.521632195 0.386101663 0.760806024
0.490362525 0.420023412 0.763626516
0.393800825 0.719215393 0.572407782
0.445863992 0.613615155 0.651676536
0.621822178 -0.2073493 0.755211234
0.587846339 -0.306380004 0.748711228
0.399556339 -0.363202393 0.841688395
0.294285566 -0.405092865 0.865618944
0.257424355 -0.525627673 0.810832083
0.311650485 -0.496061385 0.810430527
0.553273737 -0.263643801 0.790177524
0.378465593 -0.290172786 0.878956199
0.241842046 -0.311214149 0.919053078
0.289301097 -0.289195955 0.91250807
0.34496364 -0.308454037 0.886485636
0.34454447 -0.218847305 0.912904918
0.382712632 -0.18979995 0.904161274
0.278680265 -0.203698024 0.938533425
0.272880524 -0.200842902 0.940850019
0.397448957 -0.14076376 0.906763673
0.382714152 -0.0882905722 0.919638574
0.362510026 -0.0708235279 0.929285228
0.279159456 -0.0239713993 0.959945738
0.331962436 0.0114802737 0.943223059
0.420871794 0.041111622 0.906188309
0.40816918 0.0333960466 0.912295461
0.446946502 0.0712766349 0.891716838
0.343129903 0.145594388 0.927935779
0.339535326 0.192125499 0.920762658
0.413464695 0.190127656 0.890448749
0.453408122 0.221610188 0.863313675
0.366425812 0.264419466 0.892084658
0.358578682 0.277279943 0.891368449
0.366358578 0.250602514 0.8960917
0.449855924 0.276648194 0.849173665
0.377081007 0.299244553 0.876506209
0.342325836 0.34241429 0.874966323
0.616171658 0.233229592 0.752287924
0.446341634 0.286707461 0.847690165
0.373972833 0.283620059 0.883008778
0.610827804 0.253054231 0.750235677
0.465861261 0.234248698 0.853288472
0.619656742 0.180137306 0.763921916
0.425670177 0.190762073 0.884542465
0.526161671 0.196131274 0.827458262
0.563797235 0.254633218 0.785681367
0.601927817 0.335820615 0.724505305
0.577560902 0.536762595 0.615069032
0.578355491 0.467345119 0.668650925
0.548382461 0.626844585 0.553482711
0.50790149 0.62891537 0.588644147
0.511828423 0.689929605 0.511888087
0.736597598 -0.15158768 0.659124911
0.624819398 -0.311465502 0.715954363
0.637567699 -0.17801097 0.749546587
0.568489552 -0.30348891 0.764666378
0.494971931 -0.350929052 0.794891238
0.619006753 -0.138770953 0.77302891
0.501890481 -0.212745011 0.838359118
0.433780432 -0.276075065 0.857681572
0.315407455 -0.304257065 0.898858249
0.502369344 -0.187894568 0.84399122
0.417284995 -0.190692216 0.888543904
0.351708144 -0.149445668 0.924103856
0.239725605 -0.130425408 0.962040126
0.537299156 -0.109405302 0.836265862
0.433432937 -0.0614196844 0.899090648
0.381463975 -0.0200484786 0.924166501
0.286129087 -0.0196362045 0.95799017
0.583559453 0.0213967599 0.811788857
0.465404332 0.0823865905 0.881255805
0.384899646 0.0907073021 0.918490529
0.356152087 0.165542781 0.919647634
0.624206662 0.152952775 0.766140938
0.464894384 0.207358316 0.860741615
0.410841078 0.244492501 0.878312886
0.672757208 0.216449589 0.707493961
0.518538773 0.287085265 0.805419207
0.677385807 0.234956682 0.697097301
0.591646016 0.368743777 0.716926455
0.183316886 0.865869761 0.465472817
0.567138076 0.195510447 0.80008173
0.784378588 0.249929562 0.567702353
0.635858953 0.577845275 0.511643291
0.58083427 0.639040053 0.504242063
0.606589377 0.562362671 0.561959147
0.56565392 0.669035077 0.482108295
0.54729265 0.653194368 0.52326709
0.660351098 -0.263299465 0.703285336
0.629438579 -0.188794613 0.753766596
0.585339189 -0.15831247 0.795182824
0.53627193 -0.25596419 0.804298043
0.59711653 -0.113354638 0.794105291
0.528606951 -0.167288348 0.832219779
0.509221077 -0.195398614 0.838160872
0.62392813 -0.123743705 0.771622717
0.509250283 -0.105806053 0.854089975
0.514704704 -0.104358785 0.850992858
0.475493491 -0.0375811048 0.878916442
0.656784117 -0.131588474 0.742508948
0.564245343 -0.0674955025 0.82284379
0.558104277 -0.0112325791 0.829695046
0.541755199 0.103453286 0.834145784
0.649129748 -0.0288542993 0.760130584
0.616209149 0.0921380371 0.782174945
0.742379487 0.101158015 0.662299216
0.714496195 0.309040278 0.627686203
0.701143086 0.48016566 0.527105153
0.74230355 0.395004481 0.541255593
0.926716089 0.0784090385 0.367491722
0.630992353 0.586123228 0.508240879
0.604148567 0.635750055 0.48044464
0.601612508 0.624482274 0.498081177
0.568223774 0.673608899 0.472623914
0.556205809 -0.117399216 0.822710752
0.426736027 -0.0967660025 0.899184763
0.540383875 -0.130564183 0.831227362
0.497105002 -0.11927674 0.85945338
0.575032353 -0.165317565 0.801254272
0.552022755 -0.126373887 0.824197233
0.631684422 -0.0797692835 0.771110952
0.64642632 -0.0333748683 0.76224649
0.779652357 0.0897381604 0.619749784
0.750120938 0.00129076198 0.661300004
0.824909866 0.159575179 0.542272985
0.783804834 0.230094954 0.576807559
0.87175703 0.235810623 0.429457694
0.835850477 0.417950243 0.355910718
0.624745727 0.64615792 0.438375652
0.590080976 0.671048462 0.448886305
0.622371137 0.628197014 0.466929734
0.672094822 -0.182486176 0.717626631
0.747432351 -0.0893074274 0.658308268
0.889545262 -0.0107873138 0.456720471
0.870854199 0.0354156904 0.490264565
0.96322161 0.0811809078 0.256153345
0.991436243 -0.103045657 0.0802280307
0.970171332 -0.00561601063 0.242356569
0.983955681 0.143635362 0.105833583
0.606104732 0.684359133 0.405327231
0.651738346 0.640009522 0.406971395
0.990282714 -0.116437122 0.0760470107
0.993024528 -0.0703415722 0.09463045
0.922443211 0.327878535 0.203947902
0.71596092 0.601658762 0.354128897
0.619423985 0.688836038 0.376589298
0.971137106 -0.222805411 -0.0851531327
0.971227288 -0.222379804 -0.0852379724
0.99760443 0.0627327934 -0.0291687567
0.762503803 0.589926362 0.265660703
0.595959187 0.731519282 0.33122915
0.568957627 0.744150341 0.350039989
0.616598308 -0.785503805 -0.0528257899
0.588169754 -0.805600941 -0.0711597502
0.914402068 -0.403276324 -0.0351796448
0.999053538 0.043458961 0.00203739083
0.942139208 0.303119451 0.143154055
0.55348599 0.741074741 0.380081743
0.685778499 -0.727102578 0.0320957713
0.924387455 -0.354434609 0.14101246
0.984042823 -0.0521225929 0.170128554
0.540667653 0.783627689 0.305952281
0.671585262 0.694673836 0.257686257
0.437227845 0.806894839 0.397181362
-0.440824926 0.893161833 0.0890813768
0.674016356 -0.735569119 0.0681200698
0.921192288 -0.305595696 0.240866646
0.923045576 -0.224107757 0.312671185
0.966547549 0.000946827233 0.256487101
0.775555909 0.559818625 0.291747808
0.488660455 0.801264465 0.345234573
0.452015579 0.833233058 0.318441808
0.790682197 -0.588251352 0.169654414
0.789514959 -0.584371507 0.187554076
0.952344775 -0.161453679 0.258791
0.771247745 0.591126144 0.236108631
0.456490487 0.845771134 0.276203215
0.932216167 -0.355836034 0.0659878999
0.865216732 -0.485518664 0.125189126
0.976877451 -0.0562313721 0.206274673
0.93695879 0.117740043 0.329008013
0.730155349 0.610003054 0.307847619
0.730046451 0.570972323 0.37553072
0.357362479 0.890169442 0.282649934
0.994135022 -0.00969460607 0.107714146
0.948144078 0.268179506 0.170596808
0.986574233 0.0894358456 0.136650056
0.903397918 0.279764652 0.324968785
0.704269886 0.628035069 0.331023425
0.731715798 0.592870831 0.336298525
0.978998363 0.109377362 0.172045305
0.979105413 0.108670689 0.171883702
0.915041745 0.336730957 0.222062275
0.968718529 0.142416686 0.203230545
0.868403673 0.396931142 0.297189504
0.850568116 0.500096977 0.162596539
0.987076044 -0.116653204 0.10988
0.972160757 0.0314773954 0.232192352
0.972188056 0.0312994756 0.232102096
0.96976757 0.126747936 0.208533987
0.969789326 0.126637936 0.208499908
0.897057831 0.36269623 0.252466679
0.875161529 0.424117208 0.232846558
0.878956437 0.468311012 0.0901169032
0.963009596 -0.265886545 0.0437893793
0.987774193 -0.0687582642 0.139910668
0.984915018 0.0125715332 0.172583595
0.939300179 0.122689888 0.32041055
0.902854204 0.311170012 0.29669565
0.873945475 0.417838842 0.248255342
0.837267518 0.525605977 0.150738731
0.970454454 -0.237127215 0.0446030572
0.95165956 0.076948829 0.297361314
0.937340319 0.102826871 0.332896888
0.91689235 0.167851046 0.362125844
0.970493793 0.146126211 0.191805705
0.914712608 0.05354755 0.400542349
0.90207237 0.193734676 0.385659218
0.899478436 0.145663038 0.411972582
0.851165593 0.302007616 0.429312438
0.885327458 0.212318793 0.413662732
0.865535676 0.212626427 0.453474075
0.318873495 0.296649307 0.900177419
0.318979591 0.296512753 0.900184751
0.306663245 0.536408067 0.786272526
0.604573309 0.329364926 0.725265741
0.740246594 -0.0734296888 0.66831392
0.319016606 0.296494097 0.900177896
0.740190744 -0.0736246854 0.668354571
0.887111723 -0.287082583 0.361409783
0.649453402 0.701132119 0.294320405
0.13565965 0.965086043 0.224066421
0.646007061 0.703671694 0.295840353
0.646350801 0.703411698 0.295707941
-0.514575422 0.561666012 0.647876441
-0.454479367 0.454335332 0.766177714
0.159916848 0.662748218 0.731568038
-0.0369851366 0.546599329 0.836577356
-0.857081413 -0.264323384 0.442204982
-0.514740825 0.561495066 0.64789325
0.191122741 0.667720795 0.719459176
0.191579595 0.667312741 0.719716191
0.287477463 0.531274438 0.796934605
-0.57547015 0.467830479 0.670797467
-0.575165033 0.468363225 0.670687318
-0.0557668991 0.879235625 0.473112226
-0.0598093942 0.891125917 0.449797362
-0.707328558 -0.000398803735 0.706885219
-0.408045262 0.816702485 0.408039719
-0.621354282 0.468221396 0.628242016
-0.67358166 0.419291228 0.608673155
-0.598962784 0.626796126 0.498367965
-0.646425962 0.571914315 0.505022764
-0.668820918 0.305670202 0.677675962
-0.643997908 0.336433589 0.687080443
-0.579320431 0.400262684 0.710054934
-0.698703945 0.402156919 0.591678262
-0.652459323 0.455623418 0.605561495
-0.675913215 0.427095085 0.600609303
-0.718010306 0.364667565 0.592856884
-0.6566571 0.537019372 0.529539526
-0.728653848 0.462649584 0.504994512
-0.570854545 -0.757290006 -0.317234278
-0.953173101 -0.0496094003 0.298329413
-0.935427785 0.00106541498 0.353517115
-0.852198303 -0.0134347854 0.52304703
-0.808620095 0.0613166057 0.585127592
-0.679626286 0.176499993 0.712008774
-0.773394823 0.133280873 0.619755864
-0.649388492 0.235478759 0.723080099
-0.769544244 0.22073175 0.599232554
-0.761362433 0.265726924 0.591368794
-0.732722998 0.345666945 0.58620131
-0.745398402 0.350147128 0.567255497
-0.712489188 0.442855984 0.544277728
-0.78973937 0.366471767 0.491945863
-0.806677341 0.403065413 0.432215661
-0.855011642 0.345936745 0.386372119
-0.895345867 0.298973918 0.33010757
-0.530562818 -0.805896759 -0.262743235
1.00000036 6.00547464e-05 -1.40990987e-05
1.00000036 9.38001394e-05 -1.13144642e-05
-0.972539723 -0.163186044 0.165944487
-0.924432874 -0.248876005 0.288938075
-0.947425902 -0.212382063 0.23932974
-0.957213342 -0.212484658 0.196452305
-0.962798774 -0.214186087 0.164753065
-0.9631657 -0.140342072 0.229383424
-0.963172615 -0.140353605 0.229347229
-0.954312861 -0.070314236 0.290419489
-0.95428884 -0.0706913024 0.290406883
-0.941216826 0.0344874896 0.336038917
-0.941218555 0.034620747 0.33602035
-0.910834551 0.0113933142 0.41261521
-0.936876953 0.0489503369 0.346216768
-0.890554368 0.0427223705 0.452866822
-0.913555503 0.0710522458 0.400460362
-0.886669815 0.106311873 0.450016737
-0.881347835 0.145162418 0.449616045
-0.831151187 0.19579047 0.520436823
-0.839789152 0.248127282 0.482895046
-0.839778244 0.34561649 0.418714851
-0.862343669 0.308860153 0.401209891
-0.903014064 0.281201482 0.324795306
-0.924637198 0.272126317 0.266446799
-0.951556683 0.227114201 0.207267091
-0.872917593 -0.218202889 0.436351836
0.515619338 0.736697555 0.437508732
-0.674167752 -0.671099901 -0.308420688
1.00000012 -0.000744092453 -0.000115664683
1.00000036 -0.000169017658 -6.80484027e-06
0.987562478 0.115621991 -0.106548816
-0.969479561 -0.173511714 0.173215881
-0.947590053 -0.232502282 0.219126418
-0.947589576 -0.232494637 0.219136909
-0.951897621 -0.246660084 0.181798011
-0.95189935 -0.246654242 0.181797013
-0.956800282 -0.233653635 0.173031837
0.974705696 0.193732142 -0.111433037
-0.977766216 -0.105998531 0.180937275
-0.977765143 -0.105981372 0.180953369
-0.970632553 -0.05730002 0.233644769
-0.970622718 -0.0574838072 0.233640224
-0.965183735 0.0281144995 0.26005885
-0.965183973 0.0281023905 0.260059416
-0.964617074 0.0435980968 0.260026336
-0.964602232 0.0434242077 0.260110527
-0.964531839 0.044407893 0.260205567
-0.933010995 0.186809912 0.307559967
-0.903889 0.270629525 0.331277877
-0.893021822 0.281316906 0.351245552
-0.928828239 0.276781172 0.246314824
-0.952139556 0.237044737 0.192978308
-0.971634865 0.181848675 0.151186466
0.986575782 -0.132126912 -0.0959755853
-0.910493016 -0.399628758 -0.106301658
-0.977958202 -0.177930191 -0.109267198
0.414043069 0.754905641 0.508612335
1.00000024 0.000309327472 -1.17865955e-06
1.00000024 -0.000265689945 1.9163972e-06
0.997935057 0.0541018657 -0.0346304365
0.985639095 0.118409947 -0.120397463
-0.960122764 -0.220588386 0.17177254
-0.947996855 -0.262574315 0.179881588
-0.947991967 -0.262586683 0.179889455
0.952734709 0.267842948 -0.14337863
0.968555272 0.219630316 -0.116892859
0.988493085 0.0733947977 -0.1322698
-0.984424174 -0.0334437303 0.172601044
-0.984449863 0.0328964293 0.172559991
-0.983136356 0.0594385415 0.172947019
0.844182491 0.0932675302 0.52788049
-0.959150195 0.133095473 0.249633998
-0.926809013 0.213204145 0.309143692
-0.919871747 0.265849322 0.288375825
-0.949139416 0.251619667 0.189268336
-0.975890219 0.168150663 0.139155373
0.991286278 -0.102215663 -0.0830905885
1.00000012 -0.000834837148 -8.03550356e-05
-0.999999464 -0.00120805693 -0.000613329525
-1.00000024 0.000352253643 0.000101372752
0.764847279 -0.543731034 0.345493406
0.76939851 -0.549912095 0.324997038
1 -0.000827443786 3.21527568e-06
1.00000024 0.000487985992 -2.57470419e-05
1.00000036 -2.07103112e-05 -5.38968425e-06
0.995515525 0.0668750033 -0.066911988
0.978630304 0.181420952 -0.096798785
0.952984989 0.266566038 -0.144093141
-0.947600007 -0.267024368 0.175365388
-0.953317821 -0.206710875 0.220128164
-0.971349001 -0.042213656 0.233879954
-0.973098338 -2.24822688e-05 0.230391532
-0.965952873 0.0218131021 0.257798374
0.844182491 0.0932675302 0.52788049
-0.95959729 0.108355142 0.259678334
0.848515213 0.0578446612 0.5260005
-0.946075082 0.161194116 0.280996382
-0.945640683 0.215611026 0.243467122
-0.950202703 0.230284542 0.209963053
-0.971875072 0.18154572 0.150002375
0.992586434 -0.0935508236 -0.0775961131
0.206464916 0.219821766 0.953441679
0.993722677 -0.0859400555 -0.071626313
0.981787086 -0.156687334 -0.107442722
-0.966303766 -0.117105745 -0.22922492
0.563827634 -0.659900725 0.496618509
0.505474031 -0.738065302 0.44694078
0.988621652 0.11858388 -0.0925519541
0.995563805 0.0692672953 -0.0636830553
1.00000036 -7.6375909e-05 3.86293232e-06
1.00000048 -8.04382944e-05 2.0702721e-06
0.992605746 0.0986463353 -0.0707345754
0.969940841 0.193194225 -0.147957072
-0.948854268 -0.153862178 0.275686115
-0.954671323 -0.0593251698 0.291691601
-0.956431329 0.00015074815 0.291958451
-0.954678774 0.0592993312 0.291672081
0.804223299 0.121330723 0.581811368
-0.94873637 0.0923168361 0.302287191
0.826329947 0.0541358739 0.560579121
0.802879691 0.016776491 0.595905483
-0.951914549 0.160354912 0.261046916
0.774557471 0.0331824161 0.631632984
-0.972211897 0.150917143 0.178965986
0.731297672 0.074350372 0.677994311
0.991708696 -0.0908646807 -0.09087459
-0.96650672 -0.255696684 0.022012908
0.995719016 -0.0811185539 -0.0443176404
0.63707602 0.367273659 0.677676022
0.977559447 -0.170605928 -0.123578601
0.74566406 -0.460841328 0.481259644
-0.959712803 0.266551226 -0.0888946578
-0.908849597 -0.304828346 -0.284733176
-0.705209136 -0.678996086 0.204070717
-0.776238501 -0.61761266 0.126526743
-0.951161444 -0.212198734 0.224197164
-0.971460104 -0.13988544 0.191567317
0.987374187 0.0916455463 -0.129205063
0.998415709 0.0253424682 -0.050244607
1.00000036 0.000117147974 -1.90782685e-05
0.989987254 0.0997603834 -0.0998694301
-0.969923496 -0.147935823 0.19329828
-0.955410838 -0.0895370394 0.281378806
-0.948443949 -0.0496582091 0.313031673
-0.948449612 -0.0495946445 0.313024729
-0.94602257 -0.000339567399 0.324101716
-0.948457718 0.0494901054 0.313016474
-0.948455513 0.0494943783 0.313022494
0.849577606 -0.00594417006 0.527430654
-0.955435932 0.0891711712 0.281409621
0.84388119 0.0211551487 0.53611356
-0.960345149 0.116930693 0.253111005
0.830630541 0.0565545224 0.553944945
-0.981118143 0.103531517 0.163367793
0.803897262 0.0659769997 0.591098011
0.996901572 -0.0423660018 -0.0662792325
0.795092165 0.128457204 0.592729211
1.00000036 -0.000220043454 -7.19639002e-06
0.725333631 0.295399725 0.621796429
0.977349639 -0.192042321 -0.0889274701
-0.884265065 -0.276696295 -0.376184762
0.712895036 0.173105925 0.679570138
-0.954079986 0.256191581 0.155235082
0.851358116 -0.299683124 0.430557787
0.71671468 0.0481109917 0.695705295
-0.916405261 0.336588144 0.216587886
0.833204091 -0.142854244 0.534194827
-0.85627526 -0.501673281 -0.122952938
-0.579602599 -0.805926144 0.120600156
-0.685458839 -0.723256707 0.0839436278
-0.715458572 -0.684829831 -0.138302937
-0.930609524 -0.223516032 0.289840132
-0.946920574 -0.186010644 0.262187243
-0.960716784 -0.167531341 0.221262664
0.98323822 0.110805005 -0.144794911
0.995520234 0.0668140575 -0.0669036135
1.00000036 3.88979897e-05 -5.63821277e-06
0.99260366 0.0708154365 -0.0986095369
-0.984963775 -0.0362880379 0.168908879
-0.975523293 -0.0317651853 0.217591211
-0.975603878 0.000134890448 0.219539806
-0.975521982 0.0314584374 0.217641711
0.852923691 0.0159439072 0.521792769
-0.984966099 0.0362596102 0.168901712
0.992613673 -0.0706256106 -0.0986453444
0.835400999 0.0724337772 0.544847906
1.00000036 -7.35150388e-05 -2.72663465e-06
1.00000024 -0.000495180488 1.08007243e-05
0.804696977 0.246638343 0.540030539
0.996940851 -0.0721784011 -0.029997658
0.74609822 0.318478584 0.584730327
0.96388638 -0.251167178 -0.0885368139
0.780198514 0.229914606 0.581747532
0.829651952 0.148344398 0.538212001
-0.890435874 0.427270204 0.156731099
0.805190444 -0.321507573 0.498298913
0.794509768 0.0690700486 0.603310943
-0.728859305 -0.615298569 -0.300287485
-0.666208029 -0.722568572 -0.184559688
-0.947200298 -0.166963354 0.27374348
-0.944110096 -0.195422739 0.265455931
-0.943416119 -0.219615385 0.248467281
-0.943432271 -0.219545692 0.248467475
-0.957716763 -0.183914676 0.221257046
0.9794119 0.142686397 -0.142806336
0.995512903 0.0669326931 -0.0668942705
1.00000036 0.000119784381 -1.10847914e-05
0.998424053 0.0250360537 -0.0502338037
0.998670816 -0.000404156162 -0.0515473001
0.995820045 -8.19444613e-05 -0.0913404226
0.998668611 6.3149957e-05 -0.05159235
0.847914934 0.0449320227 0.528225362
0.99842459 -0.0249558333 -0.0502628535
0.852558374 0.0305180214 0.521740854
1.00000036 -0.000216167609 5.21354013e-06
0.841525137 0.0860862434 0.533315301
1.00000048 -3.42698308e-06 3.47442619e-06
0.85618782 0.0843533427 0.509732902
1.00000036 -0.000145751677 7.86151122e-06
0.981247544 -0.176778167 -0.0768336803
0.95229727 -0.275916874 -0.130385116
-0.927695513 0.348498642 0.133904859
0.884142578 -0.455321729 -0.104759678
-0.879213572 0.360574365 -0.311400443
-0.384951949 -0.911686778 -0.143665373
0.785442829 0.447211832 0.427880794
-0.690791011 -0.626338601 -0.361259192
-0.574545383 -0.815616846 -0.0683181882
-0.654790342 -0.711016655 -0.256330758
-0.955868125 -0.184013098 0.229032621
-0.933220327 -0.210740402 0.291014075
-0.930435121 -0.211093813 0.299550861
-0.942789197 -0.235793933 0.235691488
-0.928564966 -0.25426656 0.270400017
-0.952110052 -0.193099096 0.237065122
-0.97215718 -0.123635776 0.199061409
-0.986868083 -0.0499403588 0.153616846
0.992465258 0.000103308128 -0.122529306
0.992464662 9.77142263e-05 -0.122534439
0.992465675 0.00010114129 -0.122526042
0.992464721 0.000170027881 -0.122533225
0.850078702 0.0194987562 0.526295185
0.992463171 0.00023565258 -0.122546285
0.84653002 0.0502097346 0.52996856
0.995671749 0.022097934 -0.0902785659
0.846601307 0.0523211174 0.529650331
0.998415947 0.0253372081 -0.0502435565
0.843986273 0.164758459 0.510433555
0.991683304 -0.0911838934 -0.0908320248
0.849826097 0.170022607 0.49888733
-0.960280895 0.236593947 0.147934496
-0.939546049 -0.187513277 -0.286518037
0.8789047 0.0318335705 0.475934684
-0.946062922 0.270461857 0.178370461
-0.978710771 0.108693272 -0.174102396
0.934755266 -0.334259212 -0.120432682
0.943511963 -0.321337223 -0.0807968304
-0.69019717 0.646162629 0.325733423
0.68128413 0.617421746 0.39324671
0.764539778 0.491202563 0.417372137
0.746594548 0.523048162 0.411117703
-0.758485436 -0.528016686 -0.381967038
-0.458670318 -0.86611104 -0.198679999
-0.54306066 -0.833190441 -0.104304537
-0.45874685 -0.866067648 -0.198692173
-0.969137728 -0.0438244604 0.242595285
-0.938741386 -0.170031443 0.299757779
-0.919599175 -0.217024595 0.327472597
-0.906523168 -0.229510412 0.354318231
-0.944728017 -0.189492747 0.267548472
-0.911045432 -0.231786683 0.340986609
-0.947180986 -0.148330882 0.284335524
-0.955484807 -0.0762802511 0.285010129
-0.962109029 -0.0291236471 0.271106571
-0.965450168 -1.75598125e-05 0.260589182
-0.965446115 4.86373247e-05 0.260604054
0.864570618 0.109008498 0.490546048
-0.965461731 0.000207657096 0.260546118
0.880568624 0.0444284901 0.471832335
-0.968635738 -0.026027184 0.247119665
0.87898916 0.0272395425 0.476063877
-0.971928656 -0.0436852239 0.231186166
0.876939356 0.050902985 0.477898419
-0.969180048 0.0127323167 0.246025681
-0.959381759 0.111313976 0.259223074
0.870594621 0.145537347 0.469983488
0.834283471 0.157193154 0.528452456
-0.94518882 0.231032118 0.23074384
0.87714535 0.140250996 0.459289044
-0.949333787 0.26129058 0.174623355
0.744406998 -0.295735002 0.598664939
-0.919329584 0.338092029 -0.201314166
-0.962195635 0.24154374 0.125844359
0.749260426 -0.571383953 0.334857881
-0.818301201 0.346492708 0.458613575
0.961445153 -0.263111234 -0.0799766183
0.692497194 0.597133279 0.404821157
0.626719654 0.663275301 0.409009665
0.751696944 0.510459542 0.417592496
-0.745285809 -0.565242052 -0.353625745
-0.739672303 -0.635113418 -0.222522721
-0.943547487 -0.1159385 0.310285687
-0.896821618 -0.17574881 0.405985236
-0.924057364 -0.156152427 0.348905534
-0.916838944 -0.141674817 0.373276502
-0.899273813 -0.208909959 0.384270638
-0.884944737 -0.240762576 0.398631334
-0.895920873 -0.167957529 0.411238074
-0.946894705 -0.0756219774 0.31252563
-0.905348718 -0.1070228 0.410962939
-0.94414252 -0.0262434278 0.328491956
-0.918552458 -0.0415146686 0.39311409
-0.943618536 -0.000145675687 0.331035733
-0.928742051 -0.0152275991 0.370414585
-0.943626404 3.61261191e-05 0.331013471
-0.943608344 -0.000380928628 0.331064582
0.846388042 -0.0513179712 0.53008914
-0.943648934 0.000254440558 0.330949217
-0.943651259 0.000255270483 0.330942482
0.862275958 -0.061326921 0.502712548
-0.944158196 -0.0261211451 0.328456461
-0.944138587 -0.0263424031 0.328495324
0.886180282 -0.0680953562 0.458310246
-0.944539607 -0.0422662571 0.325667381
-0.944573939 -0.0418181606 0.32562539
0.848520458 0.101444714 0.519348323
-0.945757985 0.0111380611 0.324682087
0.81637311 0.250239909 0.520495415
-0.949221432 0.107933059 0.295515925
-0.949174106 0.174882784 0.261696637
-0.957217753 0.196237087 0.212663785
-0.95250982 0.231495693 0.197826564
-0.525025487 0.851086676 -0.000140575663
-0.962608278 0.215020925 0.16477865
-0.32961902 0.940562606 0.0818145424
0.640070081 0.675649703 0.365798354
0.56063652 0.742659092 0.366257846
0.768475294 0.477471739 0.425989419
-0.816275895 -0.414213032 -0.402643442
-0.864951491 -0.46012935 -0.200351074
-0.841039777 -0.503579676 -0.197636619
-0.868738174 -0.219116554 0.444164991
-0.887872517 -0.1902439 0.418915778
-0.916998625 -0.190940514 0.350222677
-0.894608498 -0.192161694 0.403422892
-0.90084064 -0.202674776 0.383939922
-0.894142568 -0.210751966 0.395086706
-0.887002468 -0.141212955 0.439643294
-0.896745622 -0.141210854 0.419413209
-0.917200565 -0.0820803791 0.38988027
-0.927482486 -0.0446871258 0.371187329
-0.933256328 -0.0318654142 0.357795805
0.830682933 -0.0742301121 0.551775694
0.825098276 -0.0492579378 0.562838435
-0.939474404 -0.000241534159 0.342619926
0.777084827 -0.0383935571 0.628224134
-0.935528338 -0.0285035037 0.352100909
-0.937974989 -0.345335126 -0.0307800509
0.847860575 -0.0479163416 0.528050244
-0.937888026 -0.0603975952 0.341641575
0.802900791 0.177261189 0.569148004
-0.951966166 -0.0086985603 0.30608058
-0.0936038569 0.943853915 0.316825598
-0.966181338 0.0527164526 0.252418995
-0.958849311 0.16915451 0.22802487
-0.954241633 0.196821168 0.2251333
-0.945800483 0.0779347345 -0.315259278
-0.958805561 0.195143908 0.206425563
-0.934525907 0.163273513 -0.316233665
0.445034862 -0.77658546 0.445936471
-0.944824159 0.23189494 0.231371269
-0.925260365 0.28443715 0.25097698
0.529648721 0.765393674 0.365575284
0.445003748 0.829695523 0.337012708
-0.692008257 -0.628805935 -0.354581803
0.616200864 0.682457864 0.393126279
-0.766854346 -0.506806791 -0.393804371
-0.812891126 -0.426446825 -0.396675944
-0.856152534 -0.37285015 -0.357751578
-0.92911911 -0.31205228 -0.198398367
-0.912044704 -0.379511684 -0.155390367
-0.886747241 -0.241476014 0.394169211
-0.887123704 -0.265642256 0.377420604
-0.892431557 -0.168212876 0.418653756
-0.878347099 -0.183671087 0.441329718
-0.875633061 -0.212223142 0.433853269
-0.877799153 -0.196161851 0.437023818
-0.907917619 -0.172760606 0.381890088
-0.895722389 -0.188148022 0.402842939
-0.92190057 -0.154246017 0.355398387
-0.920346797 -0.187326014 0.343324035
-0.921929479 -0.0933453664 0.375943244
-0.953410566 -0.0914818272 0.287471652
-0.929736137 -0.0766408741 0.360163182
-0.937591195 -0.032474976 0.346220702
0.821167529 -0.211160898 0.530184567
-0.939460039 -0.00027855899 0.342659324
0.79990387 -0.082270287 0.594462872
-0.951055646 -0.0455062501 0.305651844
0.805310488 0.105693504 0.58335638
-0.953792155 -0.0797195882 0.289699882
0.712310731 0.399885356 0.576806545
0.775167882 0.263078243 0.574373841
-0.958551645 -0.0677759796 0.276741356
-0.966427982 0.0243626386 0.25578168
-0.961492121 0.154563785 0.227252528
-0.957761765 0.183652356 0.221280098
-0.943426013 0.219593942 0.248448089
-0.943379462 0.219831795 0.248414561
-0.925137162 0.221816689 -0.308089584
-0.945351601 0.217649966 0.242774427
-0.925137162 0.221816689 -0.308089584
-0.948598862 0.206332058 0.23997511
0.503078043 0.79158932 0.346842021
0.428450495 0.839140713 0.335072398
0.658849776 0.655464113 0.369167209
-0.806478441 -0.444115937 -0.390325695
-0.860997498 -0.380177855 -0.337859124
-0.919660807 -0.285083175 -0.270096749
-0.927212834 -0.260606945 -0.269000381
-0.843357444 -0.179746911 0.506398916
-0.850080431 -0.199968532 0.487212896
-0.865702689 -0.172182232 0.470013648
-0.866901398 -0.217619941 0.448468894
-0.872993469 -0.192343295 0.448204368
-0.873865485 -0.219791278 0.433649272
-0.869092464 -0.23723352 0.434049785
-0.883363008 -0.207579851 0.420215517
-0.882256448 -0.211605653 0.420531929
-0.945549011 -0.101604901 0.309215575
-0.902343452 -0.133553013 0.409805506
-0.950317502 -0.0767310038 0.301678181
-0.916528404 -0.0782422051 0.392242938
-0.948165178 -0.0337333083 0.315983236
-0.92184031 -0.0468085147 0.384733915
0.81798327 -0.277342379 0.503969431
-0.948121071 -0.0342569053 0.316059709
-0.919697165 -0.0378883518 0.3907969
0.880505383 0.100600258 0.463239104
-0.950332105 -0.0766012669 0.301665157
-0.933780551 -0.0811579376 0.348522365
0.738646448 -0.0661028028 0.670844495
-0.953387141 -0.0916710272 0.287489146
-0.936546206 -0.112974547 0.331841379
0.663873792 0.524132729 0.533438921
-0.959116161 -0.0746306255 0.272996515
-0.961925268 0.0263369773 0.272041827
-0.950971305 0.149397671 0.270803511
-0.945142329 0.20372957 0.255344301
-0.945127308 0.20382975 0.2553204
-0.940434039 0.209980026 0.267381579
-0.925137162 0.221816689 -0.308089584
-1.00000024 0.000204837095 0.000358024467
-0.934799969 0.23818773 0.263469368
-0.925669432 -0.270576924 -0.264433205
-0.940762818 0.226891011 0.251965165
-0.675416172 -0.711960673 -0.192160472
0.5052194 0.739291131 0.445199519
0.373818874 0.873246074 0.312572062
-0.845088363 -0.416802257 -0.334816605
-0.867266238 -0.346794128 -0.357188821
-0.895271897 -0.27266413 -0.352339447
-0.897968173 -0.267795503 -0.349198401
-0.944427073 -0.194610238 -0.264924824
-0.80289644 -0.274947822 0.528925061
-0.83523792 -0.245397002 0.492096126
-0.831831932 -0.217376977 0.510689378
-0.828544319 -0.223119512 0.513548911
-0.837085485 -0.233371988 0.494798839
-0.818287313 -0.21902521 0.531445742
-0.851940095 -0.236339301 0.467271328
-0.8797611 -0.239294648 0.41080299
-0.880211592 -0.25714761 0.398877352
-0.89739871 -0.189795226 0.398314238
-0.894265294 -0.129418954 0.428416818
-0.904444695 -0.113449149 0.411229432
-0.906885087 -0.0272591002 0.420496255
0.864531577 -0.24382624 0.439470679
-0.918982446 -0.0576990172 0.390054822
0.891072094 -0.209103718 0.402823359
-0.915342152 -0.104096919 0.388990134
0.906245112 -0.0691365227 0.417061985
-0.940217018 -0.115328699 0.320456028
-0.913337767 -0.111397348 0.391670108
-0.94860661 -0.000811100705 -0.316457629
-0.950310111 -0.076823853 0.301677674
-0.907409966 -0.107080042 0.406376153
-0.954198182 0.0248948317 0.298138648
-0.920375645 0.0257300399 0.390188754
-0.951223791 0.115542449 0.286048949
-0.9197523 0.114669956 0.375375926
-0.928924739 0.177485064 0.324959248
0.635661006 0.310001194 0.706990063
-0.930054128 0.222853869 0.292123467
-0.943317831 0.216816053 0.251282781
-0.945659935 0.210098758 0.248166248
-0.788811624 0.563848138 -0.244646221
-0.661018014 -0.744036555 -0.0972894952
0.779934049 0.417997181 0.465813249
0.443710476 0.75795418 0.478149563
0.288032144 0.919107616 0.268847734
-0.741824567 -0.563500106 -0.363544285
-0.869977176 -0.328904271 -0.367372215
-0.876401126 -0.271908015 -0.397476941
0.880902886 0.222061053 0.417970747
-0.818962872 -0.208869681 0.534484804
-0.833987713 -0.212541893 0.509206176
-0.763168216 -0.211185515 0.610717177
-0.805094957 -0.276094645 0.524971068
-0.852029741 -0.249094352 0.460432231
-0.83999151 -0.305052638 0.448729157
-0.826881886 -0.349886894 0.440279663
-0.866669655 -0.298155844 0.39998433
-0.88753587 -0.237466857 0.394829512
-0.919777811 -0.12148644 0.373162687
-0.923443973 -0.153194413 0.351828665
-0.913978815 -0.10376025 0.392271876
-0.948242962 -0.106830567 0.299037278
-0.922695458 -0.0598084889 0.380863249
-0.955951273 -0.058578711 0.287622213
-0.807195842 0.552208185 -0.208570287
-0.921016216 -0.0892637223 0.379159421
-0.928883433 0.308075517 -0.205585971
-0.922694623 -0.0742900595 0.378307134
-0.95421654 -0.0523697026 0.294497937
-0.930273235 0.366838902 -0.00464296015
-0.909130037 -0.0730185658 0.410062879
-0.891610682 -0.0698451847 0.447384328
-0.882220924 0.0188984238 0.470456988
-0.24973242 0.396471202 0.883427858
-0.901493371 0.0521213897 0.429643631
-0.861775517 0.315377533 0.397341669
-0.914032519 0.124663189 0.386010766
-0.929120123 0.16285339 0.331986696
-0.946592808 0.156201661 0.282070577
-0.91378051 0.208123446 0.348841399
-0.881159782 0.290509045 0.373044908
-0.890498757 0.454099596 0.0283915438
-0.970143795 0.0876302198 -0.226147309
-0.472623527 -0.878841937 -0.065301165
-0.312541306 -0.947631717 -0.0656703711
-0.855624497 -0.384925127 -0.346034914
0.84331125 0.291909873 0.451237559
0.834701598 0.27374965 0.477844268
-0.736429572 -0.32069701 0.595672309
-0.784163594 -0.326403826 0.527777076
-0.765259445 -0.362966388 0.531633317
-0.767709792 -0.344062448 0.540595412
-0.808525085 -0.379539549 0.449708372
-0.856341958 -0.311400443 0.411957204
-0.849202991 -0.333638191 0.409317106
-0.888759732 -0.238934919 0.39117378
-0.902645469 -0.180961668 0.390492916
-0.914640486 -0.143812522 0.377824634
-0.960584819 -0.0565947741 0.272166401
-0.929736733 -0.0585610121 0.363539428
-0.69940114 0.712897837 0.0511383526
-0.956315041 -0.0588252284 0.286359668
-0.923280537 -0.0599621758 0.379418343
-0.791807771 0.607519209 0.0629388019
-0.937169254 -0.0518196598 0.345005959
-0.91776824 -0.0333257355 0.395716339
-0.682224631 0.573019505 0.454113066
-0.920670152 -0.0346235894 0.388803631
-0.91289556 -0.0183042642 0.407783359
-0.388958633 0.55867964 0.73252219
-0.909389198 -0.0390106961 0.414113551
-0.921814501 -0.046977628 0.384774953
-0.757285237 0.338705361 0.558388948
-0.757496715 0.338283449 0.558357954
-0.906991184 0.000297118968 0.421150148
-0.916572392 0.000113897448 0.39986968
-0.916725993 0.0125882588 0.399318963
-0.916746497 0.0129357306 0.399260849
-0.931647122 0.078374058 0.354812413
-0.903637648 0.0933106989 0.418010384
-0.938219607 0.141302317 0.31587714
-0.90454334 0.156507179 0.396620125
-0.88636452 0.232213885 0.400543779
-0.879263937 0.28135097 0.384365708
-0.529500008 -0.831708848 -0.167004496
-0.887992024 -0.459859192 0.00060461188
-0.330219209 -0.941693485 0.0645691678
-0.717548728 -0.665999293 -0.203885734
0.797968268 0.335824281 0.500469029
0.778189063 0.396856725 0.486751497
0.771298051 0.375600189 0.513833106
-0.679738939 -0.409987032 0.608166158
-0.699010789 -0.416064292 0.581614137
-0.723977625 -0.435557246 0.534926951
-0.683119059 -0.418167651 0.598735929
-0.739444911 -0.403535306 0.538870275
-0.740785539 -0.420790046 0.523615479
-0.796250463 -0.412654519 0.442382306
-0.890693307 -0.270218134 0.365579516
-0.863166392 -0.294517994 0.410126388
-0.913807571 -0.19068858 0.358600408
-0.912141323 -0.11743433 0.392693043
-0.905825675 -0.0858559087 0.414860517
-0.53807044 0.833812118 0.123442225
-0.907513916 -0.0240138564 0.419335932
-0.604492068 0.708929181 0.363330692
-0.890694201 0.000106246596 0.454603553
-0.895510972 -0.0375421718 0.443453848
-0.797328293 0.590892494 0.122939169
-0.881919682 -0.00877572503 0.471318811
-0.848334372 0.521771729 -0.0899093896
-0.895545363 -0.0169749111 0.444646865
-0.896016777 0.010235236 0.443902999
-0.897323608 0.097862415 0.430388123
-0.976253927 -0.216627628 -0.00124434289
-0.886747479 0.126826853 0.444515973
-0.898510575 0.200773627 0.390345156
-0.870805323 0.208822176 0.445075184
-0.875273585 0.330767095 0.352831066
-0.87711066 0.28839916 0.384061694
-0.838764787 0.409260154 0.359138191
-0.649942458 -0.678494692 -0.342374653
-0.309456974 -0.950913668 -0.000214159139
-0.310881853 -0.950004578 0.0290542375
0.731197536 0.48991096 0.474697769
0.738811731 0.431325614 0.517799199
0.742837846 0.369330704 0.558379233
0.72523421 0.326578587 0.606120765
-0.703644216 -0.396280557 0.589785695
-0.672520936 -0.370387673 0.640725493
-0.660091639 -0.480336487 0.577543437
-0.660346508 -0.386824518 0.643669009
-0.700223088 -0.475278109 0.532727838
-0.658960223 -0.494517297 0.566766858
-0.754003525 -0.433202982 0.493775696
-0.724690318 -0.476879179 0.497404009
-0.82400161 -0.320381671 0.467308939
-0.862822115 -0.222578689 0.453869194
-0.905123115 -0.126839325 0.405789196
-0.886127114 -0.133319989 0.443852693
-0.440192908 0.865535736 0.238910973
-0.916770279 -0.0378220342 0.397621065
-0.900113285 -0.0651555434 0.430756837
-0.464101762 0.831882954 0.304270774
-0.906956196 -0.000440382864 0.421225339
-0.906956673 -0.000301303895 0.421224564
-0.486199677 0.784419715 0.38509208
-0.906956971 -0.000484106888 0.421223819
-0.906962216 1.40581778e-05 0.421212763
-0.908903539 -0.0272488073 0.416115999
-0.906585336 -0.0218945835 0.421454996
-0.913611412 -0.0460405126 0.403974265
-0.908621609 -0.049287349 0.414702356
-0.963512003 0.163905114 -0.211613148
-0.91484338 -0.0175817553 0.403426737
-0.965354323 0.114530601 -0.23446627
-0.915079892 0.0140029248 0.403030217
-0.900305152 0.0497393906 0.432408631
-0.890484691 -0.052887287 -0.451929957
-0.899594188 0.10887035 0.422940046
-0.892338872 0.127554715 0.432968736
-0.880713105 0.164069474 0.444326729
-0.877693355 0.166139796 0.449502707
-0.853541732 0.196676046 0.482478619
-0.856702805 0.213115782 0.469725966
0.849595308 0.224379539 0.477328479
-0.849012136 0.212029725 0.483965218
-0.829151213 -0.353141606 -0.433358788
-0.843627989 0.305483073 0.441556871
-0.834763229 0.207462892 0.510029435
-0.428551435 -0.884646654 -0.183696508
-0.355263054 -0.926567852 -0.123533964
-0.414586276 -0.891195714 -0.184089318
-0.614749372 -0.719711304 -0.322644532
0.682474017 0.521728039 0.511888385
0.732969284 0.39862296 0.551231742
0.699184 0.475625068 0.533781946
0.75193119 0.405581445 0.51971525
0.777867138 0.353484005 0.519588768
-0.598360002 -0.480148077 0.641423225
-0.647028208 -0.499482691 0.576083481
-0.559229136 -0.598314285 0.573832273
-0.412735164 -0.67713356 0.609212935
-0.645339727 -0.566172242 0.512821913
-0.585428894 -0.610327125 0.53364253
-0.741353869 -0.457492083 0.491015226
-0.805925965 -0.335362494 0.487868875
-0.811870992 -0.369176537 0.452299327
-0.849229038 -0.230380565 0.475116372
-0.829192996 -0.247367218 0.501247525
-0.869911909 -0.123635784 0.477460116
-0.873016 -0.0783060417 0.481364489
-0.455689251 0.861831546 0.222697541
-0.876591921 -0.000220908187 0.481235236
-0.538552523 0.831352711 0.137164518
-0.876633942 0.0004042293 0.481158257
-0.812047303 0.569929719 -0.125537932
-0.871926129 -0.021998154 0.48914361
-0.905501544 0.208732575 -0.369456857
-0.867681682 -0.0417132601 0.495367855
-0.8893736 0.0769659802 -0.450656593
-0.868353844 -0.0162064191 0.495681018
0.853827298 0.0728555843 0.51543349
-0.881389439 0.0140233533 0.47218281
-0.863352299 0.0446305983 0.502624691
0.832633138 0.140495747 0.535708427
-0.848106205 0.115819201 0.517012954
0.828621686 0.165224925 0.53487134
-0.843515158 0.17989938 0.506081939
-0.811711013 0.166100174 0.559943438
0.805182099 0.156365916 0.572041988
-0.824117422 0.229499206 0.51784271
-0.819845021 0.232560545 0.523230672
-0.799291134 0.27783221 0.532863557
-0.834412456 0.239709765 0.496281743
0.694021642 0.447443068 0.564029515
-0.83403033 0.18029657 0.521427989
-0.39014256 -0.903650641 -0.176648602
-0.38087818 -0.903860271 -0.194855869
0.573456705 0.689577043 0.442302346
0.502612174 0.801540077 0.323905736
0.63356638 0.604251742 0.483191401
0.720135927 0.428661793 0.545576751
0.760879636 0.360011995 0.539865077
0.802471042 0.286831826 0.523228824
-0.479819924 -0.642454028 0.597516537
-0.341709077 -0.727905691 0.594464958
-0.249818072 -0.802358568 0.542044342
-0.0796381906 -0.914766133 0.396056861
-0.516923726 -0.665691078 0.538187504
-0.353664309 -0.743388414 0.567710757
-0.705547571 -0.520548701 0.480866104
-0.786830425 -0.347646922 0.50994128
-0.835519552 -0.192235023 0.514736295
-0.833985806 -0.161760017 0.527543247
-0.849482596 -0.124079153 0.512819827
-0.840231717 -0.0678097159 0.537971377
-0.851770461 -0.0564453825 0.520866334
-0.492239058 0.868079066 0.0643407777
-0.855240643 0.000424617494 0.518231332
-0.854841053 0.000317274797 0.51889056
-0.700472236 0.695331037 -0.16079171
-0.854780614 -0.0161835551 0.518737614
-0.854484022 -0.0154756596 0.51924777
-0.867647886 -0.000106345135 0.497179836
-0.865652919 4.34028971e-06 0.50064528
-0.8458516 -0.0475473292 0.531295538
-0.854115903 -0.0103995288 0.519979417
0.869880199 0.0379861556 0.491799086
-0.831900001 -0.000166157508 0.554925978
-0.822914481 0.0010288062 0.568164825
0.827842355 0.0832789764 0.554745197
-0.81050694 0.0749768764 0.58091104
-0.811636925 0.0629432425 0.580761731
0.822950482 0.149752676 0.548021376
-0.804175794 0.10354872 0.585302889
-0.815423012 0.118621536 0.566581726
0.824067831 0.160473764 0.543287337
-0.771474898 0.186930135 0.608181119
-0.828726292 0.155763522 0.537541687
0.84660542 0.157429546 0.508405209
-0.815636098 0.204131454 0.541358352
-0.757689834 0.201668888 0.620674133
0.835520387 0.173834935 0.521236718
-0.789364934 0.275429755 0.548672915
-0.79961288 0.237326056 0.551630437
-0.755684495 0.318800688 0.572107971
-0.811325669 0.238025412 0.533942997
-0.440985799 -0.883295655 -0.159124687
-0.409720063 -0.892522812 -0.188502088
0.547511995 0.632896602 0.547424078
0.446372867 0.796891809 0.407081455
0.654029787 0.497700959 0.569683611
0.622308612 0.549010336 0.557960749
0.742130339 0.378810287 0.55294311
0.755170763 0.300043225 0.582831025
0.758764625 0.334729075 0.558778524
0.756648302 0.383509457 0.529532373
-0.225959152 -0.847968996 0.479469776
-0.0369449742 -0.946745574 0.319856614
0.0787417516 -0.952239096 0.29502663
-0.476465672 -0.697642386 0.53504777
-0.407731652 -0.757589042 0.509719729
-0.268198401 -0.821521521 0.503162324
-0.153465778 -0.869576573 0.469345421
0.078766413 -0.952285111 0.294871628
-0.158312932 0.969071507 -0.189309105
-0.67819953 -0.540742278 0.497638255
-0.596412599 -0.597023427 0.536521792
-0.782629788 -0.357014 0.509933591
-0.794420183 -0.248124868 0.554374695
-0.818831384 -0.268571258 0.50733155
-0.829815805 -0.131753236 0.542261481
-0.818733096 -0.140278608 0.556775331
-0.848375022 -0.0513899177 0.52689606
-0.808110297 -0.0674682409 0.58515501
-0.642016649 0.741918564 -0.193318322
-0.846691012 -0.0256663579 0.531466186
-0.824313164 -0.0337271653 0.565129042
-0.853061795 -0.0115474109 0.521682739
-0.827164114 -0.0156118702 0.561744034
-0.846575081 0.395756185 -0.355932802
-0.852505326 -0.0248566289 0.522127748
-0.826677799 -0.0329056308 0.561713219
-0.876831353 0.14658609 -0.457908303
-0.852522075 0.0247140452 0.522107244
-0.811741471 0.0666267276 0.580204487
0.881385982 0.00817765016 0.472326785
-0.826419413 0.059546113 0.5598979
-0.796342611 0.0971413553 0.596994638
-0.875908494 -0.15172042 -0.45800215
-0.785356522 0.0761383027 0.61434406
-0.765776038 0.109901235 0.63364768
-0.870092809 -0.198073104 -0.451338232
-0.765121281 0.129224718 0.630786002
-0.765113473 0.128990993 0.630843282
-0.763300419 0.141100958 0.63044703
-0.778538346 0.133189112 0.613301933
-0.910672843 -0.153019741 -0.383745462
-0.757682621 0.201242238 0.620821416
-0.807869196 0.176127538 0.562429428
-0.857806504 -0.246726945 -0.450882018
-0.798340797 0.230603248 0.556304336
-0.740787089 0.2241375 0.633243561
-0.764066339 0.311122745 0.565159917
-0.772151351 0.218981653 0.596514761
-0.738936245 -0.621332407 -0.260614365
-0.421746194 -0.87032944 -0.254278451
0.501456439 0.612487197 0.611065805
0.421761692 0.750560939 0.508700132
0.281645745 0.876615345 0.390156001
0.67998004 0.372770637 0.631403148
0.582103908 0.482681096 0.654350579
0.732557893 0.322421193 0.599503219
0.686689079 0.356895536 0.633312345
0.767399371 0.272942156 0.580173671
0.73078382 0.306096673 0.610131502
0.74317801 0.366707146 0.559654593
-0.0731033981 -0.933583975 0.350823462
-0.314355165 -0.81975013 0.478738964
-0.172256336 -0.894482851 0.412587643
-0.0554009303 -0.939014316 0.339386433
-0.0896410272 0.989057064 -0.117179453
-0.0383022539 0.995753109 -0.0837192312
-0.595327079 -0.614743948 0.517374158
-0.496965528 -0.702128112 0.509943128
-0.745877624 -0.376699805 0.54933095
-0.710341692 -0.437816292 0.55111891
-0.803181231 -0.264942139 0.533578694
-0.778269291 -0.283902824 0.56008625
-0.856370568 -0.127160683 0.500459969
0.283011526 -0.860924065 0.42274639
-0.814345002 -0.0634401888 0.576903999
-0.857198 -0.08454898 0.507999539
0.607640862 -0.67860806 0.412630767
-0.865339577 -0.0292471685 0.500332654
-0.718804777 0.556661844 -0.416470528
-0.829037964 -0.0142864147 0.559010267
-0.861898005 -0.0134569686 0.506903648
0.785048544 -0.368617803 0.49781546
-0.828703582 -0.0304871146 0.558857322
-0.86180979 -0.0288960598 0.506408572
0.824126422 -0.117303409 0.554126382
-0.828664124 0.0302166939 0.558930695
-0.856238127 0.0604051724 0.51303786
-0.797658145 0.102388293 0.594355643
-0.846830845 0.115190007 0.519239247
-0.818405092 0.147943228 0.555271685
-0.777986944 0.165779665 0.606014848
-0.778537214 0.132889017 0.613368571
-0.763272643 0.140747845 0.630559623
-0.890160322 -0.168138191 -0.42349121
-0.765128136 0.12818861 0.630988955
-0.765109777 0.128778666 0.630891204
-0.887745976 -0.18485412 -0.421588361
-0.744445324 0.172531828 0.645007312
-0.768105507 0.15884304 0.620309174
-0.872371614 -0.297372431 -0.387992471
-0.741526127 0.233180583 0.629099667
-0.76655072 0.234533504 0.597824931
-0.741403759 0.331133097 0.583670914
-0.71401912 0.272804201 0.644790709
-0.720663011 -0.596296251 -0.353661388
-0.6938591 0.37926051 0.612144887
-0.736930728 0.230158672 0.63557905
0.27702865 0.750162542 0.600426316
0.19284305 0.844277203 0.500007868
0.150709495 0.883491695 0.443541944
0.322610945 0.873308063 0.36504209
0.457368612 0.806448162 0.374774426
0.502553344 0.49914676 0.705898941
0.420054764 0.644878387 0.638503194
0.620744467 0.273827523 0.734639645
0.592388153 0.372134715 0.714557707
0.627973199 0.29102388 0.721772373
0.68808639 0.299961269 0.660727501
0.650806248 0.292863786 0.700487375
0.644672155 0.381161392 0.662657142
-0.252469033 -0.890176237 0.379270494
-0.136182711 -0.951335132 0.2764346
0.0228963345 0.988623559 -0.148659334
4.94828128e-05 1.00000012 -3.80935307e-05
-4.07062107e-05 1.00000012 8.28043994e-05
-0.534771085 -0.666228354 0.519769251
-0.471241385 -0.771303654 0.427811593
0.309795022 -0.857941031 0.409834772
-0.705343187 -0.432485878 0.561647177
-0.64090085 -0.516467035 0.567898273
